NCOLS 234
NROWS 22
XLLCORNER -135956.253084
YLLCORNER 6421994.45537
CELLSIZE 1000 
NODATA_value -9999 
-76.0472166273329 -76.0472166273329 -78.0232560899523 -78.0232560899523 -78.0232560899523 -75.9233474731445 -75.9233474731445 -75.9233474731445 -73.9396175808377 -73.9396175808377 -73.9396175808377 -79.3542505900065 -79.3542505900065 -79.3542505900065 -82.9190241495768 -82.9190241495768 -82.9190241495768 -85.9494230482313 -85.9494230482313 -85.9494230482313 -88.5163667466905 -88.5163667466905 -88.5163667466905 -91.2751846313477 -91.2751846313477 -91.2751846313477 -91.6654773288303 -91.6654773288303 -91.6654773288303 -92.0199186537001 -92.0199186537001 -92.0199186537001 -94.3353042602539 -94.3353042602539 -94.3353042602539 -96.7813067966037 -96.7813067966037 -96.7813067966037 -99.2808363172743 -99.2808363172743 -99.2808363172743 -101.45406765408 -101.45406765408 -101.45406765408 -108.907167222765 -108.907167222765 -108.907167222765 -109.546140882704 -109.546140882704 -109.546140882704 -106.72132534451 -106.72132534451 -106.72132534451 -109.816184149848 -109.816184149848 -109.816184149848 -113.18760172526 -113.18760172526 -113.18760172526 -116.990008036296 -116.990008036296 -116.990008036296 -120.078600565592 -120.078600565592 -120.078600565592 -119.597688462999 -119.597688462999 -119.597688462999 -111.895846048991 -111.895846048991 -111.895846048991 -116.96674601237 -116.96674601237 -116.96674601237 -121.981017218696 -121.981017218696 -121.981017218696 -129.245148552789 -129.245148552789 -129.245148552789 -136.893018934462 -136.893018934462 -136.893018934462 -144.528552585178 -144.528552585178 -144.528552585178 -157.443054199219 -157.443054199219 -157.443054199219 -174.944998847114 -174.944998847114 -174.944998847114 -202.429873996311 -202.429873996311 -202.429873996311 -224.484010484484 -224.484010484484 -224.484010484484 -235.882363213433 -235.882363213433 -235.882363213433 -245.703652275933 -245.703652275933 -245.703652275933 -255.952997843424 -255.952997843424 -255.952997843424 -265.140387641059 -265.140387641059 -265.140387641059 -273.01513671875 -273.01513671875 -273.01513671875 -279.60208468967 -279.60208468967 -279.60208468967 -288.864708794488 -288.864708794488 -288.864708794488 -297.074296739366 -297.074296739366 -297.074296739366 -307.490634494358 -307.490634494358 -307.490634494358 -314.808464898003 -314.808464898003 -314.808464898003 -322.818884955512 -322.818884955512 -322.818884955512 -331.13914320204 -331.13914320204 -331.13914320204 -339.084157307943 -339.084157307943 -339.084157307943 -348.742723253038 -348.742723253038 -348.742723253038 -356.98038397895 -356.98038397895 -356.98038397895 -367.81337483724 -367.81337483724 -367.81337483724 -378.767330593533 -378.767330593533 -378.767330593533 -388.326270209418 -388.326270209418 -388.326270209418 -399.196234809028 -399.196234809028 -399.196234809028 -405.13284640842 -405.13284640842 -405.13284640842 -411.73245578342 -411.73245578342 -411.73245578342 -419.219312879774 -419.219312879774 -419.219312879774 -408.154106987847 -408.154106987847 -408.154106987847 -374.807488335503 -374.807488335503 -374.807488335503 -341.049706353082 -341.049706353082 -341.049706353082 -316.858883327908 -316.858883327908 -316.858883327908 -332.212019178602 -332.212019178602 -332.212019178602 -338.817053900825 -338.817053900825 -338.817053900825 -349.268768310547 -349.268768310547 -349.268768310547 -364.913801405165 -364.913801405165 -364.913801405165 -375.496744791667 -375.496744791667 -375.496744791667 -368.237579345703 -368.237579345703 -368.237579345703 -354.90424601237 -354.90424601237 -354.90424601237 -360.44430202908 -360.44430202908 -360.44430202908 -340.513193766276 -340.513193766276 -340.513193766276 -331.544352213542 -331.544352213542 -331.544352213542 -338.968221028646 -338.968221028646 -338.968221028646 -343.363233778212 -343.363233778212 -343.363233778212 -364.169637044271 -364.169637044271 -364.169637044271 -426.075758192274 -426.075758192274 -426.075758192274 -495.802222357856 -495.802222357856 -495.802222357856 -537.683275010851 -537.683275010851 -537.683275010851 -534.607449001736 -534.607449001736 -534.607449001736 -518.639997694227 -518.639997694227 -518.639997694227 -507.171552870009 -507.171552870009 -507.171552870009 -499.04626803928
-76.0472166273329 -76.0472166273329 -78.0232560899523 -78.0232560899523 -78.0232560899523 -75.9233474731445 -75.9233474731445 -75.9233474731445 -73.9396175808377 -73.9396175808377 -73.9396175808377 -79.3542505900065 -79.3542505900065 -79.3542505900065 -82.9190241495768 -82.9190241495768 -82.9190241495768 -85.9494230482313 -85.9494230482313 -85.9494230482313 -88.5163667466905 -88.5163667466905 -88.5163667466905 -91.2751846313477 -91.2751846313477 -91.2751846313477 -91.6654773288303 -91.6654773288303 -91.6654773288303 -92.0199186537001 -92.0199186537001 -92.0199186537001 -94.3353042602539 -94.3353042602539 -94.3353042602539 -96.7813067966037 -96.7813067966037 -96.7813067966037 -99.2808363172743 -99.2808363172743 -99.2808363172743 -101.45406765408 -101.45406765408 -101.45406765408 -108.907167222765 -108.907167222765 -108.907167222765 -109.546140882704 -109.546140882704 -109.546140882704 -106.72132534451 -106.72132534451 -106.72132534451 -109.816184149848 -109.816184149848 -109.816184149848 -113.18760172526 -113.18760172526 -113.18760172526 -116.990008036296 -116.990008036296 -116.990008036296 -120.078600565592 -120.078600565592 -120.078600565592 -119.597688462999 -119.597688462999 -119.597688462999 -111.895846048991 -111.895846048991 -111.895846048991 -116.96674601237 -116.96674601237 -116.96674601237 -121.981017218696 -121.981017218696 -121.981017218696 -129.245148552789 -129.245148552789 -129.245148552789 -136.893018934462 -136.893018934462 -136.893018934462 -144.528552585178 -144.528552585178 -144.528552585178 -157.443054199219 -157.443054199219 -157.443054199219 -174.944998847114 -174.944998847114 -174.944998847114 -202.429873996311 -202.429873996311 -202.429873996311 -224.484010484484 -224.484010484484 -224.484010484484 -235.882363213433 -235.882363213433 -235.882363213433 -245.703652275933 -245.703652275933 -245.703652275933 -255.952997843424 -255.952997843424 -255.952997843424 -265.140387641059 -265.140387641059 -265.140387641059 -273.01513671875 -273.01513671875 -273.01513671875 -279.60208468967 -279.60208468967 -279.60208468967 -288.864708794488 -288.864708794488 -288.864708794488 -297.074296739366 -297.074296739366 -297.074296739366 -307.490634494358 -307.490634494358 -307.490634494358 -314.808464898003 -314.808464898003 -314.808464898003 -322.818884955512 -322.818884955512 -322.818884955512 -331.13914320204 -331.13914320204 -331.13914320204 -339.084157307943 -339.084157307943 -339.084157307943 -348.742723253038 -348.742723253038 -348.742723253038 -356.98038397895 -356.98038397895 -356.98038397895 -367.81337483724 -367.81337483724 -367.81337483724 -378.767330593533 -378.767330593533 -378.767330593533 -388.326270209418 -388.326270209418 -388.326270209418 -399.196234809028 -399.196234809028 -399.196234809028 -405.13284640842 -405.13284640842 -405.13284640842 -411.73245578342 -411.73245578342 -411.73245578342 -419.219312879774 -419.219312879774 -419.219312879774 -408.154106987847 -408.154106987847 -408.154106987847 -374.807488335503 -374.807488335503 -374.807488335503 -341.049706353082 -341.049706353082 -341.049706353082 -316.858883327908 -316.858883327908 -316.858883327908 -332.212019178602 -332.212019178602 -332.212019178602 -338.817053900825 -338.817053900825 -338.817053900825 -349.268768310547 -349.268768310547 -349.268768310547 -364.913801405165 -364.913801405165 -364.913801405165 -375.496744791667 -375.496744791667 -375.496744791667 -368.237579345703 -368.237579345703 -368.237579345703 -354.90424601237 -354.90424601237 -354.90424601237 -360.44430202908 -360.44430202908 -360.44430202908 -340.513193766276 -340.513193766276 -340.513193766276 -331.544352213542 -331.544352213542 -331.544352213542 -338.968221028646 -338.968221028646 -338.968221028646 -343.363233778212 -343.363233778212 -343.363233778212 -364.169637044271 -364.169637044271 -364.169637044271 -426.075758192274 -426.075758192274 -426.075758192274 -495.802222357856 -495.802222357856 -495.802222357856 -537.683275010851 -537.683275010851 -537.683275010851 -534.607449001736 -534.607449001736 -534.607449001736 -518.639997694227 -518.639997694227 -518.639997694227 -507.171552870009 -507.171552870009 -507.171552870009 -499.04626803928
-71.2199876573351 -71.2199876573351 -76.0283618503147 -76.0283618503147 -76.0283618503147 -78.676259358724 -78.676259358724 -78.676259358724 -76.1067911783854 -76.1067911783854 -76.1067911783854 -79.5289662679036 -79.5289662679036 -79.5289662679036 -80.4043223063151 -80.4043223063151 -80.4043223063151 -83.3664525349935 -83.3664525349935 -83.3664525349935 -86.28040822347 -86.28040822347 -86.28040822347 -88.4323315090603 -88.4323315090603 -88.4323315090603 -89.5073716905382 -89.5073716905382 -89.5073716905382 -90.9582875569661 -90.9582875569661 -90.9582875569661 -90.7201724582248 -90.7201724582248 -90.7201724582248 -94.3081342909071 -94.3081342909071 -94.3081342909071 -95.4164216783312 -95.4164216783312 -95.4164216783312 -97.5347663031684 -97.5347663031684 -97.5347663031684 -105.189013163249 -105.189013163249 -105.189013163249 -109.43389723036 -109.43389723036 -109.43389723036 -108.394454108344 -108.394454108344 -108.394454108344 -107.43243238661 -107.43243238661 -107.43243238661 -109.577753702799 -109.577753702799 -109.577753702799 -111.913735283746 -111.913735283746 -111.913735283746 -117.852157592773 -117.852157592773 -117.852157592773 -120.716657850477 -120.716657850477 -120.716657850477 -121.323677062988 -121.323677062988 -121.323677062988 -120.406912909614 -120.406912909614 -120.406912909614 -123.469010247125 -123.469010247125 -123.469010247125 -129.237130059136 -129.237130059136 -129.237130059136 -132.127343071832 -132.127343071832 -132.127343071832 -137.437973022461 -137.437973022461 -137.437973022461 -143.480834960938 -143.480834960938 -143.480834960938 -155.137571546766 -155.137571546766 -155.137571546766 -173.989608764648 -173.989608764648 -173.989608764648 -202.481009589301 -202.481009589301 -202.481009589301 -231.869947645399 -231.869947645399 -231.869947645399 -246.075508965386 -246.075508965386 -246.075508965386 -252.64259507921 -252.64259507921 -252.64259507921 -259.850162082248 -259.850162082248 -259.850162082248 -267.35932413737 -267.35932413737 -267.35932413737 -273.544898139106 -273.544898139106 -273.544898139106 -281.479366726345 -281.479366726345 -281.479366726345 -290.654090033637 -290.654090033637 -290.654090033637 -299.769568549262 -299.769568549262 -299.769568549262 -308.00793117947 -308.00793117947 -308.00793117947 -316.613328721788 -316.613328721788 -316.613328721788 -323.865814208984 -323.865814208984 -323.865814208984 -332.837080213759 -332.837080213759 -332.837080213759 -342.662519666884 -342.662519666884 -342.662519666884 -351.882212320964 -351.882212320964 -351.882212320964 -361.438171386719 -361.438171386719 -361.438171386719 -373.255137125651 -373.255137125651 -373.255137125651 -381.946736653646 -381.946736653646 -381.946736653646 -393.247412787543 -393.247412787543 -393.247412787543 -402.871537950304 -402.871537950304 -402.871537950304 -415.011759440104 -415.011759440104 -415.011759440104 -424.304480658637 -424.304480658637 -424.304480658637 -430.161204020182 -430.161204020182 -430.161204020182 -407.851304796007 -407.851304796007 -407.851304796007 -409.435017903646 -409.435017903646 -409.435017903646 -402.076266818576 -402.076266818576 -402.076266818576 -426.865614149306 -426.865614149306 -426.865614149306 -433.691850450304 -433.691850450304 -433.691850450304 -442.260101318359 -442.260101318359 -442.260101318359 -452.175062391493 -452.175062391493 -452.175062391493 -460.867095947266 -460.867095947266 -460.867095947266 -454.478868272569 -454.478868272569 -454.478868272569 -454.915740966797 -454.915740966797 -454.915740966797 -442.206553141276 -442.206553141276 -442.206553141276 -427.410312228733 -427.410312228733 -427.410312228733 -414.373772515191 -414.373772515191 -414.373772515191 -405.292168511285 -405.292168511285 -405.292168511285 -423.902828640408 -423.902828640408 -423.902828640408 -462.936336941189 -462.936336941189 -462.936336941189 -497.59435696072 -497.59435696072 -497.59435696072 -529.822692871094 -529.822692871094 -529.822692871094 -529.638095431858 -529.638095431858 -529.638095431858 -519.603169759115 -519.603169759115 -519.603169759115 -506.642517089844 -506.642517089844 -506.642517089844 -499.159088134766 -499.159088134766 -499.159088134766 -495.168429904514
-71.2199876573351 -71.2199876573351 -76.0283618503147 -76.0283618503147 -76.0283618503147 -78.676259358724 -78.676259358724 -78.676259358724 -76.1067911783854 -76.1067911783854 -76.1067911783854 -79.5289662679036 -79.5289662679036 -79.5289662679036 -80.4043223063151 -80.4043223063151 -80.4043223063151 -83.3664525349935 -83.3664525349935 -83.3664525349935 -86.28040822347 -86.28040822347 -86.28040822347 -88.4323315090603 -88.4323315090603 -88.4323315090603 -89.5073716905382 -89.5073716905382 -89.5073716905382 -90.9582875569661 -90.9582875569661 -90.9582875569661 -90.7201724582248 -90.7201724582248 -90.7201724582248 -94.3081342909071 -94.3081342909071 -94.3081342909071 -95.4164216783312 -95.4164216783312 -95.4164216783312 -97.5347663031684 -97.5347663031684 -97.5347663031684 -105.189013163249 -105.189013163249 -105.189013163249 -109.43389723036 -109.43389723036 -109.43389723036 -108.394454108344 -108.394454108344 -108.394454108344 -107.43243238661 -107.43243238661 -107.43243238661 -109.577753702799 -109.577753702799 -109.577753702799 -111.913735283746 -111.913735283746 -111.913735283746 -117.852157592773 -117.852157592773 -117.852157592773 -120.716657850477 -120.716657850477 -120.716657850477 -121.323677062988 -121.323677062988 -121.323677062988 -120.406912909614 -120.406912909614 -120.406912909614 -123.469010247125 -123.469010247125 -123.469010247125 -129.237130059136 -129.237130059136 -129.237130059136 -132.127343071832 -132.127343071832 -132.127343071832 -137.437973022461 -137.437973022461 -137.437973022461 -143.480834960938 -143.480834960938 -143.480834960938 -155.137571546766 -155.137571546766 -155.137571546766 -173.989608764648 -173.989608764648 -173.989608764648 -202.481009589301 -202.481009589301 -202.481009589301 -231.869947645399 -231.869947645399 -231.869947645399 -246.075508965386 -246.075508965386 -246.075508965386 -252.64259507921 -252.64259507921 -252.64259507921 -259.850162082248 -259.850162082248 -259.850162082248 -267.35932413737 -267.35932413737 -267.35932413737 -273.544898139106 -273.544898139106 -273.544898139106 -281.479366726345 -281.479366726345 -281.479366726345 -290.654090033637 -290.654090033637 -290.654090033637 -299.769568549262 -299.769568549262 -299.769568549262 -308.00793117947 -308.00793117947 -308.00793117947 -316.613328721788 -316.613328721788 -316.613328721788 -323.865814208984 -323.865814208984 -323.865814208984 -332.837080213759 -332.837080213759 -332.837080213759 -342.662519666884 -342.662519666884 -342.662519666884 -351.882212320964 -351.882212320964 -351.882212320964 -361.438171386719 -361.438171386719 -361.438171386719 -373.255137125651 -373.255137125651 -373.255137125651 -381.946736653646 -381.946736653646 -381.946736653646 -393.247412787543 -393.247412787543 -393.247412787543 -402.871537950304 -402.871537950304 -402.871537950304 -415.011759440104 -415.011759440104 -415.011759440104 -424.304480658637 -424.304480658637 -424.304480658637 -430.161204020182 -430.161204020182 -430.161204020182 -407.851304796007 -407.851304796007 -407.851304796007 -409.435017903646 -409.435017903646 -409.435017903646 -402.076266818576 -402.076266818576 -402.076266818576 -426.865614149306 -426.865614149306 -426.865614149306 -433.691850450304 -433.691850450304 -433.691850450304 -442.260101318359 -442.260101318359 -442.260101318359 -452.175062391493 -452.175062391493 -452.175062391493 -460.867095947266 -460.867095947266 -460.867095947266 -454.478868272569 -454.478868272569 -454.478868272569 -454.915740966797 -454.915740966797 -454.915740966797 -442.206553141276 -442.206553141276 -442.206553141276 -427.410312228733 -427.410312228733 -427.410312228733 -414.373772515191 -414.373772515191 -414.373772515191 -405.292168511285 -405.292168511285 -405.292168511285 -423.902828640408 -423.902828640408 -423.902828640408 -462.936336941189 -462.936336941189 -462.936336941189 -497.59435696072 -497.59435696072 -497.59435696072 -529.822692871094 -529.822692871094 -529.822692871094 -529.638095431858 -529.638095431858 -529.638095431858 -519.603169759115 -519.603169759115 -519.603169759115 -506.642517089844 -506.642517089844 -506.642517089844 -499.159088134766 -499.159088134766 -499.159088134766 -495.168429904514
-71.2199876573351 -71.2199876573351 -76.0283618503147 -76.0283618503147 -76.0283618503147 -78.676259358724 -78.676259358724 -78.676259358724 -76.1067911783854 -76.1067911783854 -76.1067911783854 -79.5289662679036 -79.5289662679036 -79.5289662679036 -80.4043223063151 -80.4043223063151 -80.4043223063151 -83.3664525349935 -83.3664525349935 -83.3664525349935 -86.28040822347 -86.28040822347 -86.28040822347 -88.4323315090603 -88.4323315090603 -88.4323315090603 -89.5073716905382 -89.5073716905382 -89.5073716905382 -90.9582875569661 -90.9582875569661 -90.9582875569661 -90.7201724582248 -90.7201724582248 -90.7201724582248 -94.3081342909071 -94.3081342909071 -94.3081342909071 -95.4164216783312 -95.4164216783312 -95.4164216783312 -97.5347663031684 -97.5347663031684 -97.5347663031684 -105.189013163249 -105.189013163249 -105.189013163249 -109.43389723036 -109.43389723036 -109.43389723036 -108.394454108344 -108.394454108344 -108.394454108344 -107.43243238661 -107.43243238661 -107.43243238661 -109.577753702799 -109.577753702799 -109.577753702799 -111.913735283746 -111.913735283746 -111.913735283746 -117.852157592773 -117.852157592773 -117.852157592773 -120.716657850477 -120.716657850477 -120.716657850477 -121.323677062988 -121.323677062988 -121.323677062988 -120.406912909614 -120.406912909614 -120.406912909614 -123.469010247125 -123.469010247125 -123.469010247125 -129.237130059136 -129.237130059136 -129.237130059136 -132.127343071832 -132.127343071832 -132.127343071832 -137.437973022461 -137.437973022461 -137.437973022461 -143.480834960938 -143.480834960938 -143.480834960938 -155.137571546766 -155.137571546766 -155.137571546766 -173.989608764648 -173.989608764648 -173.989608764648 -202.481009589301 -202.481009589301 -202.481009589301 -231.869947645399 -231.869947645399 -231.869947645399 -246.075508965386 -246.075508965386 -246.075508965386 -252.64259507921 -252.64259507921 -252.64259507921 -259.850162082248 -259.850162082248 -259.850162082248 -267.35932413737 -267.35932413737 -267.35932413737 -273.544898139106 -273.544898139106 -273.544898139106 -281.479366726345 -281.479366726345 -281.479366726345 -290.654090033637 -290.654090033637 -290.654090033637 -299.769568549262 -299.769568549262 -299.769568549262 -308.00793117947 -308.00793117947 -308.00793117947 -316.613328721788 -316.613328721788 -316.613328721788 -323.865814208984 -323.865814208984 -323.865814208984 -332.837080213759 -332.837080213759 -332.837080213759 -342.662519666884 -342.662519666884 -342.662519666884 -351.882212320964 -351.882212320964 -351.882212320964 -361.438171386719 -361.438171386719 -361.438171386719 -373.255137125651 -373.255137125651 -373.255137125651 -381.946736653646 -381.946736653646 -381.946736653646 -393.247412787543 -393.247412787543 -393.247412787543 -402.871537950304 -402.871537950304 -402.871537950304 -415.011759440104 -415.011759440104 -415.011759440104 -424.304480658637 -424.304480658637 -424.304480658637 -430.161204020182 -430.161204020182 -430.161204020182 -407.851304796007 -407.851304796007 -407.851304796007 -409.435017903646 -409.435017903646 -409.435017903646 -402.076266818576 -402.076266818576 -402.076266818576 -426.865614149306 -426.865614149306 -426.865614149306 -433.691850450304 -433.691850450304 -433.691850450304 -442.260101318359 -442.260101318359 -442.260101318359 -452.175062391493 -452.175062391493 -452.175062391493 -460.867095947266 -460.867095947266 -460.867095947266 -454.478868272569 -454.478868272569 -454.478868272569 -454.915740966797 -454.915740966797 -454.915740966797 -442.206553141276 -442.206553141276 -442.206553141276 -427.410312228733 -427.410312228733 -427.410312228733 -414.373772515191 -414.373772515191 -414.373772515191 -405.292168511285 -405.292168511285 -405.292168511285 -423.902828640408 -423.902828640408 -423.902828640408 -462.936336941189 -462.936336941189 -462.936336941189 -497.59435696072 -497.59435696072 -497.59435696072 -529.822692871094 -529.822692871094 -529.822692871094 -529.638095431858 -529.638095431858 -529.638095431858 -519.603169759115 -519.603169759115 -519.603169759115 -506.642517089844 -506.642517089844 -506.642517089844 -499.159088134766 -499.159088134766 -499.159088134766 -495.168429904514
-71.5874286227756 -71.5874286227756 -72.0966033935547 -72.0966033935547 -72.0966033935547 -73.8648817274306 -73.8648817274306 -73.8648817274306 -74.114141676161 -74.114141676161 -74.114141676161 -78.0480253431532 -78.0480253431532 -78.0480253431532 -79.2894532945421 -79.2894532945421 -79.2894532945421 -81.9827482435438 -81.9827482435438 -81.9827482435438 -84.7333747016059 -84.7333747016059 -84.7333747016059 -84.5136379665799 -84.5136379665799 -84.5136379665799 -87.1888105604384 -87.1888105604384 -87.1888105604384 -89.080576578776 -89.080576578776 -89.080576578776 -90.0593304104275 -90.0593304104275 -90.0593304104275 -90.7556847466363 -90.7556847466363 -90.7556847466363 -91.3018815782335 -91.3018815782335 -91.3018815782335 -93.7137824164496 -93.7137824164496 -93.7137824164496 -94.8085878160265 -94.8085878160265 -94.8085878160265 -99.4325349595812 -99.4325349595812 -99.4325349595812 -105.543133205838 -105.543133205838 -105.543133205838 -105.774549696181 -105.774549696181 -105.774549696181 -107.661134507921 -107.661134507921 -107.661134507921 -109.719489203559 -109.719489203559 -109.719489203559 -111.316229078505 -111.316229078505 -111.316229078505 -116.640404595269 -116.640404595269 -116.640404595269 -123.70837826199 -123.70837826199 -123.70837826199 -127.267167833116 -127.267167833116 -127.267167833116 -124.481772528754 -124.481772528754 -124.481772528754 -130.53013949924 -130.53013949924 -130.53013949924 -131.317562527127 -131.317562527127 -131.317562527127 -134.971911960178 -134.971911960178 -134.971911960178 -137.057427300347 -137.057427300347 -137.057427300347 -142.099224514431 -142.099224514431 -142.099224514431 -152.390224880642 -152.390224880642 -152.390224880642 -168.680184258355 -168.680184258355 -168.680184258355 -195.126356336806 -195.126356336806 -195.126356336806 -231.281110975477 -231.281110975477 -231.281110975477 -256.172500610352 -256.172500610352 -256.172500610352 -258.943642510308 -258.943642510308 -258.943642510308 -262.491797553168 -262.491797553168 -262.491797553168 -270.557308620877 -270.557308620877 -270.557308620877 -276.58206515842 -276.58206515842 -276.58206515842 -284.802235921224 -284.802235921224 -284.802235921224 -292.612582736545 -292.612582736545 -292.612582736545 -300.80359225803 -300.80359225803 -300.80359225803 -308.446099175347 -308.446099175347 -308.446099175347 -315.137953016493 -315.137953016493 -315.137953016493 -325.948313395182 -325.948313395182 -325.948313395182 -335.704366048177 -335.704366048177 -335.704366048177 -343.834008110894 -343.834008110894 -343.834008110894 -350.837643093533 -350.837643093533 -350.837643093533 -359.065032958984 -359.065032958984 -359.065032958984 -370.692403157552 -370.692403157552 -370.692403157552 -381.515309651693 -381.515309651693 -381.515309651693 -390.954054090712 -390.954054090712 -390.954054090712 -407.060251871745 -407.060251871745 -407.060251871745 -419.013939751519 -419.013939751519 -419.013939751519 -436.181596544054 -436.181596544054 -436.181596544054 -442.829254150391 -442.829254150391 -442.829254150391 -448.289944118924 -448.289944118924 -448.289944118924 -457.416178385417 -457.416178385417 -457.416178385417 -461.235578748915 -461.235578748915 -461.235578748915 -464.178124321832 -464.178124321832 -464.178124321832 -467.740607367622 -467.740607367622 -467.740607367622 -473.929938422309 -473.929938422309 -473.929938422309 -481.265702989366 -481.265702989366 -481.265702989366 -486.746656629774 -486.746656629774 -486.746656629774 -491.158857557509 -491.158857557509 -491.158857557509 -492.413265652127 -492.413265652127 -492.413265652127 -490.870364718967 -490.870364718967 -490.870364718967 -490.701171875 -490.701171875 -490.701171875 -495.73230319553 -495.73230319553 -495.73230319553 -506.555362277561 -506.555362277561 -506.555362277561 -508.598778618707 -508.598778618707 -508.598778618707 -505.944288465712 -505.944288465712 -505.944288465712 -509.836035834418 -509.836035834418 -509.836035834418 -507.289235432943 -507.289235432943 -507.289235432943 -505.840498182509 -505.840498182509 -505.840498182509 -496.448143853082 -496.448143853082 -496.448143853082 -496.971171061198 -496.971171061198 -496.971171061198 -503.278974745009
-71.5874286227756 -71.5874286227756 -72.0966033935547 -72.0966033935547 -72.0966033935547 -73.8648817274306 -73.8648817274306 -73.8648817274306 -74.114141676161 -74.114141676161 -74.114141676161 -78.0480253431532 -78.0480253431532 -78.0480253431532 -79.2894532945421 -79.2894532945421 -79.2894532945421 -81.9827482435438 -81.9827482435438 -81.9827482435438 -84.7333747016059 -84.7333747016059 -84.7333747016059 -84.5136379665799 -84.5136379665799 -84.5136379665799 -87.1888105604384 -87.1888105604384 -87.1888105604384 -89.080576578776 -89.080576578776 -89.080576578776 -90.0593304104275 -90.0593304104275 -90.0593304104275 -90.7556847466363 -90.7556847466363 -90.7556847466363 -91.3018815782335 -91.3018815782335 -91.3018815782335 -93.7137824164496 -93.7137824164496 -93.7137824164496 -94.8085878160265 -94.8085878160265 -94.8085878160265 -99.4325349595812 -99.4325349595812 -99.4325349595812 -105.543133205838 -105.543133205838 -105.543133205838 -105.774549696181 -105.774549696181 -105.774549696181 -107.661134507921 -107.661134507921 -107.661134507921 -109.719489203559 -109.719489203559 -109.719489203559 -111.316229078505 -111.316229078505 -111.316229078505 -116.640404595269 -116.640404595269 -116.640404595269 -123.70837826199 -123.70837826199 -123.70837826199 -127.267167833116 -127.267167833116 -127.267167833116 -124.481772528754 -124.481772528754 -124.481772528754 -130.53013949924 -130.53013949924 -130.53013949924 -131.317562527127 -131.317562527127 -131.317562527127 -134.971911960178 -134.971911960178 -134.971911960178 -137.057427300347 -137.057427300347 -137.057427300347 -142.099224514431 -142.099224514431 -142.099224514431 -152.390224880642 -152.390224880642 -152.390224880642 -168.680184258355 -168.680184258355 -168.680184258355 -195.126356336806 -195.126356336806 -195.126356336806 -231.281110975477 -231.281110975477 -231.281110975477 -256.172500610352 -256.172500610352 -256.172500610352 -258.943642510308 -258.943642510308 -258.943642510308 -262.491797553168 -262.491797553168 -262.491797553168 -270.557308620877 -270.557308620877 -270.557308620877 -276.58206515842 -276.58206515842 -276.58206515842 -284.802235921224 -284.802235921224 -284.802235921224 -292.612582736545 -292.612582736545 -292.612582736545 -300.80359225803 -300.80359225803 -300.80359225803 -308.446099175347 -308.446099175347 -308.446099175347 -315.137953016493 -315.137953016493 -315.137953016493 -325.948313395182 -325.948313395182 -325.948313395182 -335.704366048177 -335.704366048177 -335.704366048177 -343.834008110894 -343.834008110894 -343.834008110894 -350.837643093533 -350.837643093533 -350.837643093533 -359.065032958984 -359.065032958984 -359.065032958984 -370.692403157552 -370.692403157552 -370.692403157552 -381.515309651693 -381.515309651693 -381.515309651693 -390.954054090712 -390.954054090712 -390.954054090712 -407.060251871745 -407.060251871745 -407.060251871745 -419.013939751519 -419.013939751519 -419.013939751519 -436.181596544054 -436.181596544054 -436.181596544054 -442.829254150391 -442.829254150391 -442.829254150391 -448.289944118924 -448.289944118924 -448.289944118924 -457.416178385417 -457.416178385417 -457.416178385417 -461.235578748915 -461.235578748915 -461.235578748915 -464.178124321832 -464.178124321832 -464.178124321832 -467.740607367622 -467.740607367622 -467.740607367622 -473.929938422309 -473.929938422309 -473.929938422309 -481.265702989366 -481.265702989366 -481.265702989366 -486.746656629774 -486.746656629774 -486.746656629774 -491.158857557509 -491.158857557509 -491.158857557509 -492.413265652127 -492.413265652127 -492.413265652127 -490.870364718967 -490.870364718967 -490.870364718967 -490.701171875 -490.701171875 -490.701171875 -495.73230319553 -495.73230319553 -495.73230319553 -506.555362277561 -506.555362277561 -506.555362277561 -508.598778618707 -508.598778618707 -508.598778618707 -505.944288465712 -505.944288465712 -505.944288465712 -509.836035834418 -509.836035834418 -509.836035834418 -507.289235432943 -507.289235432943 -507.289235432943 -505.840498182509 -505.840498182509 -505.840498182509 -496.448143853082 -496.448143853082 -496.448143853082 -496.971171061198 -496.971171061198 -496.971171061198 -503.278974745009
-71.5874286227756 -71.5874286227756 -72.0966033935547 -72.0966033935547 -72.0966033935547 -73.8648817274306 -73.8648817274306 -73.8648817274306 -74.114141676161 -74.114141676161 -74.114141676161 -78.0480253431532 -78.0480253431532 -78.0480253431532 -79.2894532945421 -79.2894532945421 -79.2894532945421 -81.9827482435438 -81.9827482435438 -81.9827482435438 -84.7333747016059 -84.7333747016059 -84.7333747016059 -84.5136379665799 -84.5136379665799 -84.5136379665799 -87.1888105604384 -87.1888105604384 -87.1888105604384 -89.080576578776 -89.080576578776 -89.080576578776 -90.0593304104275 -90.0593304104275 -90.0593304104275 -90.7556847466363 -90.7556847466363 -90.7556847466363 -91.3018815782335 -91.3018815782335 -91.3018815782335 -93.7137824164496 -93.7137824164496 -93.7137824164496 -94.8085878160265 -94.8085878160265 -94.8085878160265 -99.4325349595812 -99.4325349595812 -99.4325349595812 -105.543133205838 -105.543133205838 -105.543133205838 -105.774549696181 -105.774549696181 -105.774549696181 -107.661134507921 -107.661134507921 -107.661134507921 -109.719489203559 -109.719489203559 -109.719489203559 -111.316229078505 -111.316229078505 -111.316229078505 -116.640404595269 -116.640404595269 -116.640404595269 -123.70837826199 -123.70837826199 -123.70837826199 -127.267167833116 -127.267167833116 -127.267167833116 -124.481772528754 -124.481772528754 -124.481772528754 -130.53013949924 -130.53013949924 -130.53013949924 -131.317562527127 -131.317562527127 -131.317562527127 -134.971911960178 -134.971911960178 -134.971911960178 -137.057427300347 -137.057427300347 -137.057427300347 -142.099224514431 -142.099224514431 -142.099224514431 -152.390224880642 -152.390224880642 -152.390224880642 -168.680184258355 -168.680184258355 -168.680184258355 -195.126356336806 -195.126356336806 -195.126356336806 -231.281110975477 -231.281110975477 -231.281110975477 -256.172500610352 -256.172500610352 -256.172500610352 -258.943642510308 -258.943642510308 -258.943642510308 -262.491797553168 -262.491797553168 -262.491797553168 -270.557308620877 -270.557308620877 -270.557308620877 -276.58206515842 -276.58206515842 -276.58206515842 -284.802235921224 -284.802235921224 -284.802235921224 -292.612582736545 -292.612582736545 -292.612582736545 -300.80359225803 -300.80359225803 -300.80359225803 -308.446099175347 -308.446099175347 -308.446099175347 -315.137953016493 -315.137953016493 -315.137953016493 -325.948313395182 -325.948313395182 -325.948313395182 -335.704366048177 -335.704366048177 -335.704366048177 -343.834008110894 -343.834008110894 -343.834008110894 -350.837643093533 -350.837643093533 -350.837643093533 -359.065032958984 -359.065032958984 -359.065032958984 -370.692403157552 -370.692403157552 -370.692403157552 -381.515309651693 -381.515309651693 -381.515309651693 -390.954054090712 -390.954054090712 -390.954054090712 -407.060251871745 -407.060251871745 -407.060251871745 -419.013939751519 -419.013939751519 -419.013939751519 -436.181596544054 -436.181596544054 -436.181596544054 -442.829254150391 -442.829254150391 -442.829254150391 -448.289944118924 -448.289944118924 -448.289944118924 -457.416178385417 -457.416178385417 -457.416178385417 -461.235578748915 -461.235578748915 -461.235578748915 -464.178124321832 -464.178124321832 -464.178124321832 -467.740607367622 -467.740607367622 -467.740607367622 -473.929938422309 -473.929938422309 -473.929938422309 -481.265702989366 -481.265702989366 -481.265702989366 -486.746656629774 -486.746656629774 -486.746656629774 -491.158857557509 -491.158857557509 -491.158857557509 -492.413265652127 -492.413265652127 -492.413265652127 -490.870364718967 -490.870364718967 -490.870364718967 -490.701171875 -490.701171875 -490.701171875 -495.73230319553 -495.73230319553 -495.73230319553 -506.555362277561 -506.555362277561 -506.555362277561 -508.598778618707 -508.598778618707 -508.598778618707 -505.944288465712 -505.944288465712 -505.944288465712 -509.836035834418 -509.836035834418 -509.836035834418 -507.289235432943 -507.289235432943 -507.289235432943 -505.840498182509 -505.840498182509 -505.840498182509 -496.448143853082 -496.448143853082 -496.448143853082 -496.971171061198 -496.971171061198 -496.971171061198 -503.278974745009
-74.9088406032986 -74.9088406032986 -73.464951409234 -73.464951409234 -73.464951409234 -72.6707661946615 -72.6707661946615 -72.6707661946615 -74.0696394178602 -74.0696394178602 -74.0696394178602 -75.125739203559 -75.125739203559 -75.125739203559 -78.1302897135417 -78.1302897135417 -78.1302897135417 -79.8844604492188 -79.8844604492188 -79.8844604492188 -80.9676327175564 -80.9676327175564 -80.9676327175564 -83.5333006117079 -83.5333006117079 -83.5333006117079 -86.2571207682292 -86.2571207682292 -86.2571207682292 -88.5957989162869 -88.5957989162869 -88.5957989162869 -88.729114956326 -88.729114956326 -88.729114956326 -88.9662729899089 -88.9662729899089 -88.9662729899089 -89.6566950480143 -89.6566950480143 -89.6566950480143 -89.5115186903212 -89.5115186903212 -89.5115186903212 -90.7896211412218 -90.7896211412218 -90.7896211412218 -94.7878553602431 -94.7878553602431 -94.7878553602431 -98.0918341742621 -98.0918341742621 -98.0918341742621 -102.739293416341 -102.739293416341 -102.739293416341 -108.499037000868 -108.499037000868 -108.499037000868 -108.058053758409 -108.058053758409 -108.058053758409 -108.021575927734 -108.021575927734 -108.021575927734 -113.574923197428 -113.574923197428 -113.574923197428 -116.485716078016 -116.485716078016 -116.485716078016 -122.510431925456 -122.510431925456 -122.510431925456 -129.158100552029 -129.158100552029 -129.158100552029 -130.337861802843 -130.337861802843 -130.337861802843 -132.629813300239 -132.629813300239 -132.629813300239 -135.578099568685 -135.578099568685 -135.578099568685 -139.819800482856 -139.819800482856 -139.819800482856 -139.393870035807 -139.393870035807 -139.393870035807 -141.639794243707 -141.639794243707 -141.639794243707 -149.021436903212 -149.021436903212 -149.021436903212 -162.478371514214 -162.478371514214 -162.478371514214 -189.532289293077 -189.532289293077 -189.532289293077 -224.004776000977 -224.004776000977 -224.004776000977 -258.39609781901 -258.39609781901 -258.39609781901 -263.386003282335 -263.386003282335 -263.386003282335 -269.279713948568 -269.279713948568 -269.279713948568 -273.391937255859 -273.391937255859 -273.391937255859 -280.55067952474 -280.55067952474 -280.55067952474 -287.09826321072 -287.09826321072 -287.09826321072 -294.019677056207 -294.019677056207 -294.019677056207 -301.432081434462 -301.432081434462 -301.432081434462 -307.468502468533 -307.468502468533 -307.468502468533 -316.15340508355 -316.15340508355 -316.15340508355 -325.774078369141 -325.774078369141 -325.774078369141 -333.784888373481 -333.784888373481 -333.784888373481 -343.271779378255 -343.271779378255 -343.271779378255 -350.416154649523 -350.416154649523 -350.416154649523 -363.119934082031 -363.119934082031 -363.119934082031 -367.715484619141 -367.715484619141 -367.715484619141 -376.69861178928 -376.69861178928 -376.69861178928 -390.803656684028 -390.803656684028 -390.803656684028 -403.90133327908 -403.90133327908 -403.90133327908 -415.835489908854 -415.835489908854 -415.835489908854 -426.120524088542 -426.120524088542 -426.120524088542 -434.271948920356 -434.271948920356 -434.271948920356 -442.931403266059 -442.931403266059 -442.931403266059 -449.249311659071 -449.249311659071 -449.249311659071 -450.929514567057 -450.929514567057 -450.929514567057 -454.591437445747 -454.591437445747 -454.591437445747 -459.369160970052 -459.369160970052 -459.369160970052 -466.618899875217 -466.618899875217 -466.618899875217 -475.9027472602 -475.9027472602 -475.9027472602 -483.796681722005 -483.796681722005 -483.796681722005 -491.435835096571 -491.435835096571 -491.435835096571 -497.470581054688 -497.470581054688 -497.470581054688 -500.47450764974 -500.47450764974 -500.47450764974 -503.157352023655 -503.157352023655 -503.157352023655 -503.992184109158 -503.992184109158 -503.992184109158 -508.647610134549 -508.647610134549 -508.647610134549 -511.223727756076 -511.223727756076 -511.223727756076 -515.882775200738 -515.882775200738 -515.882775200738 -510.790866427951 -510.790866427951 -510.790866427951 -505.147108289931 -505.147108289931 -505.147108289931 -496.62595960829 -496.62595960829 -496.62595960829 -499.875030517578 -499.875030517578 -499.875030517578 -509.214189317491
-74.9088406032986 -74.9088406032986 -73.464951409234 -73.464951409234 -73.464951409234 -72.6707661946615 -72.6707661946615 -72.6707661946615 -74.0696394178602 -74.0696394178602 -74.0696394178602 -75.125739203559 -75.125739203559 -75.125739203559 -78.1302897135417 -78.1302897135417 -78.1302897135417 -79.8844604492188 -79.8844604492188 -79.8844604492188 -80.9676327175564 -80.9676327175564 -80.9676327175564 -83.5333006117079 -83.5333006117079 -83.5333006117079 -86.2571207682292 -86.2571207682292 -86.2571207682292 -88.5957989162869 -88.5957989162869 -88.5957989162869 -88.729114956326 -88.729114956326 -88.729114956326 -88.9662729899089 -88.9662729899089 -88.9662729899089 -89.6566950480143 -89.6566950480143 -89.6566950480143 -89.5115186903212 -89.5115186903212 -89.5115186903212 -90.7896211412218 -90.7896211412218 -90.7896211412218 -94.7878553602431 -94.7878553602431 -94.7878553602431 -98.0918341742621 -98.0918341742621 -98.0918341742621 -102.739293416341 -102.739293416341 -102.739293416341 -108.499037000868 -108.499037000868 -108.499037000868 -108.058053758409 -108.058053758409 -108.058053758409 -108.021575927734 -108.021575927734 -108.021575927734 -113.574923197428 -113.574923197428 -113.574923197428 -116.485716078016 -116.485716078016 -116.485716078016 -122.510431925456 -122.510431925456 -122.510431925456 -129.158100552029 -129.158100552029 -129.158100552029 -130.337861802843 -130.337861802843 -130.337861802843 -132.629813300239 -132.629813300239 -132.629813300239 -135.578099568685 -135.578099568685 -135.578099568685 -139.819800482856 -139.819800482856 -139.819800482856 -139.393870035807 -139.393870035807 -139.393870035807 -141.639794243707 -141.639794243707 -141.639794243707 -149.021436903212 -149.021436903212 -149.021436903212 -162.478371514214 -162.478371514214 -162.478371514214 -189.532289293077 -189.532289293077 -189.532289293077 -224.004776000977 -224.004776000977 -224.004776000977 -258.39609781901 -258.39609781901 -258.39609781901 -263.386003282335 -263.386003282335 -263.386003282335 -269.279713948568 -269.279713948568 -269.279713948568 -273.391937255859 -273.391937255859 -273.391937255859 -280.55067952474 -280.55067952474 -280.55067952474 -287.09826321072 -287.09826321072 -287.09826321072 -294.019677056207 -294.019677056207 -294.019677056207 -301.432081434462 -301.432081434462 -301.432081434462 -307.468502468533 -307.468502468533 -307.468502468533 -316.15340508355 -316.15340508355 -316.15340508355 -325.774078369141 -325.774078369141 -325.774078369141 -333.784888373481 -333.784888373481 -333.784888373481 -343.271779378255 -343.271779378255 -343.271779378255 -350.416154649523 -350.416154649523 -350.416154649523 -363.119934082031 -363.119934082031 -363.119934082031 -367.715484619141 -367.715484619141 -367.715484619141 -376.69861178928 -376.69861178928 -376.69861178928 -390.803656684028 -390.803656684028 -390.803656684028 -403.90133327908 -403.90133327908 -403.90133327908 -415.835489908854 -415.835489908854 -415.835489908854 -426.120524088542 -426.120524088542 -426.120524088542 -434.271948920356 -434.271948920356 -434.271948920356 -442.931403266059 -442.931403266059 -442.931403266059 -449.249311659071 -449.249311659071 -449.249311659071 -450.929514567057 -450.929514567057 -450.929514567057 -454.591437445747 -454.591437445747 -454.591437445747 -459.369160970052 -459.369160970052 -459.369160970052 -466.618899875217 -466.618899875217 -466.618899875217 -475.9027472602 -475.9027472602 -475.9027472602 -483.796681722005 -483.796681722005 -483.796681722005 -491.435835096571 -491.435835096571 -491.435835096571 -497.470581054688 -497.470581054688 -497.470581054688 -500.47450764974 -500.47450764974 -500.47450764974 -503.157352023655 -503.157352023655 -503.157352023655 -503.992184109158 -503.992184109158 -503.992184109158 -508.647610134549 -508.647610134549 -508.647610134549 -511.223727756076 -511.223727756076 -511.223727756076 -515.882775200738 -515.882775200738 -515.882775200738 -510.790866427951 -510.790866427951 -510.790866427951 -505.147108289931 -505.147108289931 -505.147108289931 -496.62595960829 -496.62595960829 -496.62595960829 -499.875030517578 -499.875030517578 -499.875030517578 -509.214189317491
-74.9088406032986 -74.9088406032986 -73.464951409234 -73.464951409234 -73.464951409234 -72.6707661946615 -72.6707661946615 -72.6707661946615 -74.0696394178602 -74.0696394178602 -74.0696394178602 -75.125739203559 -75.125739203559 -75.125739203559 -78.1302897135417 -78.1302897135417 -78.1302897135417 -79.8844604492188 -79.8844604492188 -79.8844604492188 -80.9676327175564 -80.9676327175564 -80.9676327175564 -83.5333006117079 -83.5333006117079 -83.5333006117079 -86.2571207682292 -86.2571207682292 -86.2571207682292 -88.5957989162869 -88.5957989162869 -88.5957989162869 -88.729114956326 -88.729114956326 -88.729114956326 -88.9662729899089 -88.9662729899089 -88.9662729899089 -89.6566950480143 -89.6566950480143 -89.6566950480143 -89.5115186903212 -89.5115186903212 -89.5115186903212 -90.7896211412218 -90.7896211412218 -90.7896211412218 -94.7878553602431 -94.7878553602431 -94.7878553602431 -98.0918341742621 -98.0918341742621 -98.0918341742621 -102.739293416341 -102.739293416341 -102.739293416341 -108.499037000868 -108.499037000868 -108.499037000868 -108.058053758409 -108.058053758409 -108.058053758409 -108.021575927734 -108.021575927734 -108.021575927734 -113.574923197428 -113.574923197428 -113.574923197428 -116.485716078016 -116.485716078016 -116.485716078016 -122.510431925456 -122.510431925456 -122.510431925456 -129.158100552029 -129.158100552029 -129.158100552029 -130.337861802843 -130.337861802843 -130.337861802843 -132.629813300239 -132.629813300239 -132.629813300239 -135.578099568685 -135.578099568685 -135.578099568685 -139.819800482856 -139.819800482856 -139.819800482856 -139.393870035807 -139.393870035807 -139.393870035807 -141.639794243707 -141.639794243707 -141.639794243707 -149.021436903212 -149.021436903212 -149.021436903212 -162.478371514214 -162.478371514214 -162.478371514214 -189.532289293077 -189.532289293077 -189.532289293077 -224.004776000977 -224.004776000977 -224.004776000977 -258.39609781901 -258.39609781901 -258.39609781901 -263.386003282335 -263.386003282335 -263.386003282335 -269.279713948568 -269.279713948568 -269.279713948568 -273.391937255859 -273.391937255859 -273.391937255859 -280.55067952474 -280.55067952474 -280.55067952474 -287.09826321072 -287.09826321072 -287.09826321072 -294.019677056207 -294.019677056207 -294.019677056207 -301.432081434462 -301.432081434462 -301.432081434462 -307.468502468533 -307.468502468533 -307.468502468533 -316.15340508355 -316.15340508355 -316.15340508355 -325.774078369141 -325.774078369141 -325.774078369141 -333.784888373481 -333.784888373481 -333.784888373481 -343.271779378255 -343.271779378255 -343.271779378255 -350.416154649523 -350.416154649523 -350.416154649523 -363.119934082031 -363.119934082031 -363.119934082031 -367.715484619141 -367.715484619141 -367.715484619141 -376.69861178928 -376.69861178928 -376.69861178928 -390.803656684028 -390.803656684028 -390.803656684028 -403.90133327908 -403.90133327908 -403.90133327908 -415.835489908854 -415.835489908854 -415.835489908854 -426.120524088542 -426.120524088542 -426.120524088542 -434.271948920356 -434.271948920356 -434.271948920356 -442.931403266059 -442.931403266059 -442.931403266059 -449.249311659071 -449.249311659071 -449.249311659071 -450.929514567057 -450.929514567057 -450.929514567057 -454.591437445747 -454.591437445747 -454.591437445747 -459.369160970052 -459.369160970052 -459.369160970052 -466.618899875217 -466.618899875217 -466.618899875217 -475.9027472602 -475.9027472602 -475.9027472602 -483.796681722005 -483.796681722005 -483.796681722005 -491.435835096571 -491.435835096571 -491.435835096571 -497.470581054688 -497.470581054688 -497.470581054688 -500.47450764974 -500.47450764974 -500.47450764974 -503.157352023655 -503.157352023655 -503.157352023655 -503.992184109158 -503.992184109158 -503.992184109158 -508.647610134549 -508.647610134549 -508.647610134549 -511.223727756076 -511.223727756076 -511.223727756076 -515.882775200738 -515.882775200738 -515.882775200738 -510.790866427951 -510.790866427951 -510.790866427951 -505.147108289931 -505.147108289931 -505.147108289931 -496.62595960829 -496.62595960829 -496.62595960829 -499.875030517578 -499.875030517578 -499.875030517578 -509.214189317491
-75.9631271362305 -75.9631271362305 -76.5190811157227 -76.5190811157227 -76.5190811157227 -77.472519768609 -77.472519768609 -77.472519768609 -78.3475850423177 -78.3475850423177 -78.3475850423177 -77.8175972832574 -77.8175972832574 -77.8175972832574 -79.0284720526801 -79.0284720526801 -79.0284720526801 -77.6045633951823 -77.6045633951823 -77.6045633951823 -79.145156012641 -79.145156012641 -79.145156012641 -80.880126953125 -80.880126953125 -80.880126953125 -83.5679575602214 -83.5679575602214 -83.5679575602214 -86.3969116210938 -86.3969116210938 -86.3969116210938 -86.1299158732096 -86.1299158732096 -86.1299158732096 -86.6232884724935 -86.6232884724935 -86.6232884724935 -87.0797348022461 -87.0797348022461 -87.0797348022461 -87.1550047132704 -87.1550047132704 -87.1550047132704 -89.9210908677843 -89.9210908677843 -89.9210908677843 -90.8471654256185 -90.8471654256185 -90.8471654256185 -93.0430425008138 -93.0430425008138 -93.0430425008138 -92.5640368991428 -92.5640368991428 -92.5640368991428 -97.8123584323459 -97.8123584323459 -97.8123584323459 -100.804595099555 -100.804595099555 -100.804595099555 -106.7947201199 -106.7947201199 -106.7947201199 -110.599674648709 -110.599674648709 -110.599674648709 -110.586081610786 -110.586081610786 -110.586081610786 -111.296114603678 -111.296114603678 -111.296114603678 -116.903762817383 -116.903762817383 -116.903762817383 -124.918919881185 -124.918919881185 -124.918919881185 -133.883087158203 -133.883087158203 -133.883087158203 -132.587173461914 -132.587173461914 -132.587173461914 -138.847310384115 -138.847310384115 -138.847310384115 -140.263929578993 -140.263929578993 -140.263929578993 -140.302179972331 -140.302179972331 -140.302179972331 -140.482437133789 -140.482437133789 -140.482437133789 -146.773442586263 -146.773442586263 -146.773442586263 -165.486726548937 -165.486726548937 -165.486726548937 -192.533933851454 -192.533933851454 -192.533933851454 -223.268232557509 -223.268232557509 -223.268232557509 -255.100489298503 -255.100489298503 -255.100489298503 -269.393866644965 -269.393866644965 -269.393866644965 -275.415062798394 -275.415062798394 -275.415062798394 -283.170888264974 -283.170888264974 -283.170888264974 -288.985324435764 -288.985324435764 -288.985324435764 -293.343282063802 -293.343282063802 -293.343282063802 -300.372724745009 -300.372724745009 -300.372724745009 -301.393069797092 -301.393069797092 -301.393069797092 -309.048916286892 -309.048916286892 -309.048916286892 -316.483934190538 -316.483934190538 -316.483934190538 -323.66694132487 -323.66694132487 -323.66694132487 -334.720994737413 -334.720994737413 -334.720994737413 -339.601189507378 -339.601189507378 -339.601189507378 -352.160261366102 -352.160261366102 -352.160261366102 -354.8990105523 -354.8990105523 -354.8990105523 -363.280334472656 -363.280334472656 -363.280334472656 -374.586137559679 -374.586137559679 -374.586137559679 -383.819566514757 -383.819566514757 -383.819566514757 -393.33698187934 -393.33698187934 -393.33698187934 -403.667358398438 -403.667358398438 -403.667358398438 -411.357723659939 -411.357723659939 -411.357723659939 -421.70307413737 -421.70307413737 -421.70307413737 -428.855529785156 -428.855529785156 -428.855529785156 -432.894148084852 -432.894148084852 -432.894148084852 -441.85339694553 -441.85339694553 -441.85339694553 -448.513888888889 -448.513888888889 -448.513888888889 -453.635426839193 -453.635426839193 -453.635426839193 -463.97942437066 -463.97942437066 -463.97942437066 -476.326229519314 -476.326229519314 -476.326229519314 -486.090467664931 -486.090467664931 -486.090467664931 -494.242034912109 -494.242034912109 -494.242034912109 -498.076629638672 -498.076629638672 -498.076629638672 -503.756232367622 -503.756232367622 -503.756232367622 -507.06000773112 -507.06000773112 -507.06000773112 -509.723130967882 -509.723130967882 -509.723130967882 -515.162662082248 -515.162662082248 -515.162662082248 -516.728712293837 -516.728712293837 -516.728712293837 -507.513095431858 -507.513095431858 -507.513095431858 -507.303639729818 -507.303639729818 -507.303639729818 -508.003801133898 -508.003801133898 -508.003801133898 -507.083160400391 -507.083160400391 -507.083160400391 -517.167263454861
-75.9631271362305 -75.9631271362305 -76.5190811157227 -76.5190811157227 -76.5190811157227 -77.472519768609 -77.472519768609 -77.472519768609 -78.3475850423177 -78.3475850423177 -78.3475850423177 -77.8175972832574 -77.8175972832574 -77.8175972832574 -79.0284720526801 -79.0284720526801 -79.0284720526801 -77.6045633951823 -77.6045633951823 -77.6045633951823 -79.145156012641 -79.145156012641 -79.145156012641 -80.880126953125 -80.880126953125 -80.880126953125 -83.5679575602214 -83.5679575602214 -83.5679575602214 -86.3969116210938 -86.3969116210938 -86.3969116210938 -86.1299158732096 -86.1299158732096 -86.1299158732096 -86.6232884724935 -86.6232884724935 -86.6232884724935 -87.0797348022461 -87.0797348022461 -87.0797348022461 -87.1550047132704 -87.1550047132704 -87.1550047132704 -89.9210908677843 -89.9210908677843 -89.9210908677843 -90.8471654256185 -90.8471654256185 -90.8471654256185 -93.0430425008138 -93.0430425008138 -93.0430425008138 -92.5640368991428 -92.5640368991428 -92.5640368991428 -97.8123584323459 -97.8123584323459 -97.8123584323459 -100.804595099555 -100.804595099555 -100.804595099555 -106.7947201199 -106.7947201199 -106.7947201199 -110.599674648709 -110.599674648709 -110.599674648709 -110.586081610786 -110.586081610786 -110.586081610786 -111.296114603678 -111.296114603678 -111.296114603678 -116.903762817383 -116.903762817383 -116.903762817383 -124.918919881185 -124.918919881185 -124.918919881185 -133.883087158203 -133.883087158203 -133.883087158203 -132.587173461914 -132.587173461914 -132.587173461914 -138.847310384115 -138.847310384115 -138.847310384115 -140.263929578993 -140.263929578993 -140.263929578993 -140.302179972331 -140.302179972331 -140.302179972331 -140.482437133789 -140.482437133789 -140.482437133789 -146.773442586263 -146.773442586263 -146.773442586263 -165.486726548937 -165.486726548937 -165.486726548937 -192.533933851454 -192.533933851454 -192.533933851454 -223.268232557509 -223.268232557509 -223.268232557509 -255.100489298503 -255.100489298503 -255.100489298503 -269.393866644965 -269.393866644965 -269.393866644965 -275.415062798394 -275.415062798394 -275.415062798394 -283.170888264974 -283.170888264974 -283.170888264974 -288.985324435764 -288.985324435764 -288.985324435764 -293.343282063802 -293.343282063802 -293.343282063802 -300.372724745009 -300.372724745009 -300.372724745009 -301.393069797092 -301.393069797092 -301.393069797092 -309.048916286892 -309.048916286892 -309.048916286892 -316.483934190538 -316.483934190538 -316.483934190538 -323.66694132487 -323.66694132487 -323.66694132487 -334.720994737413 -334.720994737413 -334.720994737413 -339.601189507378 -339.601189507378 -339.601189507378 -352.160261366102 -352.160261366102 -352.160261366102 -354.8990105523 -354.8990105523 -354.8990105523 -363.280334472656 -363.280334472656 -363.280334472656 -374.586137559679 -374.586137559679 -374.586137559679 -383.819566514757 -383.819566514757 -383.819566514757 -393.33698187934 -393.33698187934 -393.33698187934 -403.667358398438 -403.667358398438 -403.667358398438 -411.357723659939 -411.357723659939 -411.357723659939 -421.70307413737 -421.70307413737 -421.70307413737 -428.855529785156 -428.855529785156 -428.855529785156 -432.894148084852 -432.894148084852 -432.894148084852 -441.85339694553 -441.85339694553 -441.85339694553 -448.513888888889 -448.513888888889 -448.513888888889 -453.635426839193 -453.635426839193 -453.635426839193 -463.97942437066 -463.97942437066 -463.97942437066 -476.326229519314 -476.326229519314 -476.326229519314 -486.090467664931 -486.090467664931 -486.090467664931 -494.242034912109 -494.242034912109 -494.242034912109 -498.076629638672 -498.076629638672 -498.076629638672 -503.756232367622 -503.756232367622 -503.756232367622 -507.06000773112 -507.06000773112 -507.06000773112 -509.723130967882 -509.723130967882 -509.723130967882 -515.162662082248 -515.162662082248 -515.162662082248 -516.728712293837 -516.728712293837 -516.728712293837 -507.513095431858 -507.513095431858 -507.513095431858 -507.303639729818 -507.303639729818 -507.303639729818 -508.003801133898 -508.003801133898 -508.003801133898 -507.083160400391 -507.083160400391 -507.083160400391 -517.167263454861
-75.9631271362305 -75.9631271362305 -76.5190811157227 -76.5190811157227 -76.5190811157227 -77.472519768609 -77.472519768609 -77.472519768609 -78.3475850423177 -78.3475850423177 -78.3475850423177 -77.8175972832574 -77.8175972832574 -77.8175972832574 -79.0284720526801 -79.0284720526801 -79.0284720526801 -77.6045633951823 -77.6045633951823 -77.6045633951823 -79.145156012641 -79.145156012641 -79.145156012641 -80.880126953125 -80.880126953125 -80.880126953125 -83.5679575602214 -83.5679575602214 -83.5679575602214 -86.3969116210938 -86.3969116210938 -86.3969116210938 -86.1299158732096 -86.1299158732096 -86.1299158732096 -86.6232884724935 -86.6232884724935 -86.6232884724935 -87.0797348022461 -87.0797348022461 -87.0797348022461 -87.1550047132704 -87.1550047132704 -87.1550047132704 -89.9210908677843 -89.9210908677843 -89.9210908677843 -90.8471654256185 -90.8471654256185 -90.8471654256185 -93.0430425008138 -93.0430425008138 -93.0430425008138 -92.5640368991428 -92.5640368991428 -92.5640368991428 -97.8123584323459 -97.8123584323459 -97.8123584323459 -100.804595099555 -100.804595099555 -100.804595099555 -106.7947201199 -106.7947201199 -106.7947201199 -110.599674648709 -110.599674648709 -110.599674648709 -110.586081610786 -110.586081610786 -110.586081610786 -111.296114603678 -111.296114603678 -111.296114603678 -116.903762817383 -116.903762817383 -116.903762817383 -124.918919881185 -124.918919881185 -124.918919881185 -133.883087158203 -133.883087158203 -133.883087158203 -132.587173461914 -132.587173461914 -132.587173461914 -138.847310384115 -138.847310384115 -138.847310384115 -140.263929578993 -140.263929578993 -140.263929578993 -140.302179972331 -140.302179972331 -140.302179972331 -140.482437133789 -140.482437133789 -140.482437133789 -146.773442586263 -146.773442586263 -146.773442586263 -165.486726548937 -165.486726548937 -165.486726548937 -192.533933851454 -192.533933851454 -192.533933851454 -223.268232557509 -223.268232557509 -223.268232557509 -255.100489298503 -255.100489298503 -255.100489298503 -269.393866644965 -269.393866644965 -269.393866644965 -275.415062798394 -275.415062798394 -275.415062798394 -283.170888264974 -283.170888264974 -283.170888264974 -288.985324435764 -288.985324435764 -288.985324435764 -293.343282063802 -293.343282063802 -293.343282063802 -300.372724745009 -300.372724745009 -300.372724745009 -301.393069797092 -301.393069797092 -301.393069797092 -309.048916286892 -309.048916286892 -309.048916286892 -316.483934190538 -316.483934190538 -316.483934190538 -323.66694132487 -323.66694132487 -323.66694132487 -334.720994737413 -334.720994737413 -334.720994737413 -339.601189507378 -339.601189507378 -339.601189507378 -352.160261366102 -352.160261366102 -352.160261366102 -354.8990105523 -354.8990105523 -354.8990105523 -363.280334472656 -363.280334472656 -363.280334472656 -374.586137559679 -374.586137559679 -374.586137559679 -383.819566514757 -383.819566514757 -383.819566514757 -393.33698187934 -393.33698187934 -393.33698187934 -403.667358398438 -403.667358398438 -403.667358398438 -411.357723659939 -411.357723659939 -411.357723659939 -421.70307413737 -421.70307413737 -421.70307413737 -428.855529785156 -428.855529785156 -428.855529785156 -432.894148084852 -432.894148084852 -432.894148084852 -441.85339694553 -441.85339694553 -441.85339694553 -448.513888888889 -448.513888888889 -448.513888888889 -453.635426839193 -453.635426839193 -453.635426839193 -463.97942437066 -463.97942437066 -463.97942437066 -476.326229519314 -476.326229519314 -476.326229519314 -486.090467664931 -486.090467664931 -486.090467664931 -494.242034912109 -494.242034912109 -494.242034912109 -498.076629638672 -498.076629638672 -498.076629638672 -503.756232367622 -503.756232367622 -503.756232367622 -507.06000773112 -507.06000773112 -507.06000773112 -509.723130967882 -509.723130967882 -509.723130967882 -515.162662082248 -515.162662082248 -515.162662082248 -516.728712293837 -516.728712293837 -516.728712293837 -507.513095431858 -507.513095431858 -507.513095431858 -507.303639729818 -507.303639729818 -507.303639729818 -508.003801133898 -508.003801133898 -508.003801133898 -507.083160400391 -507.083160400391 -507.083160400391 -517.167263454861
-77.116569519043 -77.116569519043 -79.6486892700195 -79.6486892700195 -79.6486892700195 -81.4769787258572 -81.4769787258572 -81.4769787258572 -82.5189293755425 -82.5189293755425 -82.5189293755425 -81.5004586113824 -81.5004586113824 -81.5004586113824 -80.7159695095486 -80.7159695095486 -80.7159695095486 -79.4385265774197 -79.4385265774197 -79.4385265774197 -79.4554189046224 -79.4554189046224 -79.4554189046224 -79.7555313110352 -79.7555313110352 -79.7555313110352 -80.3838153415256 -80.3838153415256 -80.3838153415256 -83.521849738227 -83.521849738227 -83.521849738227 -84.802241007487 -84.802241007487 -84.802241007487 -86.0077217949761 -86.0077217949761 -86.0077217949761 -85.5821363661024 -85.5821363661024 -85.5821363661024 -86.0421964857313 -86.0421964857313 -86.0421964857313 -86.0566940307617 -86.0566940307617 -86.0566940307617 -88.7134687635634 -88.7134687635634 -88.7134687635634 -89.7123853895399 -89.7123853895399 -89.7123853895399 -90.2854224310981 -90.2854224310981 -90.2854224310981 -89.610961066352 -89.610961066352 -89.610961066352 -92.0771670871311 -92.0771670871311 -92.0771670871311 -97.1962068345812 -97.1962068345812 -97.1962068345812 -110.016855027941 -110.016855027941 -110.016855027941 -110.97758992513 -110.97758992513 -110.97758992513 -110.167100694444 -110.167100694444 -110.167100694444 -112.392578972711 -112.392578972711 -112.392578972711 -113.060963948568 -113.060963948568 -113.060963948568 -119.17815568712 -119.17815568712 -119.17815568712 -136.497399224175 -136.497399224175 -136.497399224175 -140.111211140951 -140.111211140951 -140.111211140951 -140.285100301107 -140.285100301107 -140.285100301107 -140.23474460178 -140.23474460178 -140.23474460178 -140.315171983507 -140.315171983507 -140.315171983507 -142.850187513563 -142.850187513563 -142.850187513563 -150.115834554036 -150.115834554036 -150.115834554036 -163.658396402995 -163.658396402995 -163.658396402995 -183.932017008464 -183.932017008464 -183.932017008464 -210.482515123155 -210.482515123155 -210.482515123155 -241.65365770128 -241.65365770128 -241.65365770128 -269.242702907986 -269.242702907986 -269.242702907986 -288.214667426215 -288.214667426215 -288.214667426215 -301.540218777127 -301.540218777127 -301.540218777127 -308.24452718099 -308.24452718099 -308.24452718099 -312.605153401693 -312.605153401693 -312.605153401693 -306.561204698351 -306.561204698351 -306.561204698351 -306.633700900608 -306.633700900608 -306.633700900608 -309.205373128255 -309.205373128255 -309.205373128255 -314.25444539388 -314.25444539388 -314.25444539388 -323.44101969401 -323.44101969401 -323.44101969401 -328.028951009115 -328.028951009115 -328.028951009115 -339.404524061415 -339.404524061415 -339.404524061415 -340.597130669488 -340.597130669488 -340.597130669488 -348.960927327474 -348.960927327474 -348.960927327474 -359.008558485243 -359.008558485243 -359.008558485243 -365.676083034939 -365.676083034939 -365.676083034939 -374.038157145182 -374.038157145182 -374.038157145182 -380.39735921224 -380.39735921224 -380.39735921224 -385.984646267361 -385.984646267361 -385.984646267361 -393.911790635851 -393.911790635851 -393.911790635851 -402.599056667752 -402.599056667752 -402.599056667752 -410.797875298394 -410.797875298394 -410.797875298394 -421.128445095486 -421.128445095486 -421.128445095486 -429.72556898329 -429.72556898329 -429.72556898329 -437.176588270399 -437.176588270399 -437.176588270399 -449.911641438802 -449.911641438802 -449.911641438802 -464.961473253038 -464.961473253038 -464.961473253038 -475.044965955946 -475.044965955946 -475.044965955946 -483.541795518663 -483.541795518663 -483.541795518663 -486.913146972656 -486.913146972656 -486.913146972656 -489.808858235677 -489.808858235677 -489.808858235677 -497.67918226454 -497.67918226454 -497.67918226454 -503.595536973741 -503.595536973741 -503.595536973741 -505.354353162977 -505.354353162977 -505.354353162977 -505.862891303168 -505.862891303168 -505.862891303168 -507.287272135417 -507.287272135417 -507.287272135417 -508.921115451389 -508.921115451389 -508.921115451389 -514.001485188802 -514.001485188802 -514.001485188802 -515.075992160373 -515.075992160373 -515.075992160373 -525.738226996528
-77.116569519043 -77.116569519043 -79.6486892700195 -79.6486892700195 -79.6486892700195 -81.4769787258572 -81.4769787258572 -81.4769787258572 -82.5189293755425 -82.5189293755425 -82.5189293755425 -81.5004586113824 -81.5004586113824 -81.5004586113824 -80.7159695095486 -80.7159695095486 -80.7159695095486 -79.4385265774197 -79.4385265774197 -79.4385265774197 -79.4554189046224 -79.4554189046224 -79.4554189046224 -79.7555313110352 -79.7555313110352 -79.7555313110352 -80.3838153415256 -80.3838153415256 -80.3838153415256 -83.521849738227 -83.521849738227 -83.521849738227 -84.802241007487 -84.802241007487 -84.802241007487 -86.0077217949761 -86.0077217949761 -86.0077217949761 -85.5821363661024 -85.5821363661024 -85.5821363661024 -86.0421964857313 -86.0421964857313 -86.0421964857313 -86.0566940307617 -86.0566940307617 -86.0566940307617 -88.7134687635634 -88.7134687635634 -88.7134687635634 -89.7123853895399 -89.7123853895399 -89.7123853895399 -90.2854224310981 -90.2854224310981 -90.2854224310981 -89.610961066352 -89.610961066352 -89.610961066352 -92.0771670871311 -92.0771670871311 -92.0771670871311 -97.1962068345812 -97.1962068345812 -97.1962068345812 -110.016855027941 -110.016855027941 -110.016855027941 -110.97758992513 -110.97758992513 -110.97758992513 -110.167100694444 -110.167100694444 -110.167100694444 -112.392578972711 -112.392578972711 -112.392578972711 -113.060963948568 -113.060963948568 -113.060963948568 -119.17815568712 -119.17815568712 -119.17815568712 -136.497399224175 -136.497399224175 -136.497399224175 -140.111211140951 -140.111211140951 -140.111211140951 -140.285100301107 -140.285100301107 -140.285100301107 -140.23474460178 -140.23474460178 -140.23474460178 -140.315171983507 -140.315171983507 -140.315171983507 -142.850187513563 -142.850187513563 -142.850187513563 -150.115834554036 -150.115834554036 -150.115834554036 -163.658396402995 -163.658396402995 -163.658396402995 -183.932017008464 -183.932017008464 -183.932017008464 -210.482515123155 -210.482515123155 -210.482515123155 -241.65365770128 -241.65365770128 -241.65365770128 -269.242702907986 -269.242702907986 -269.242702907986 -288.214667426215 -288.214667426215 -288.214667426215 -301.540218777127 -301.540218777127 -301.540218777127 -308.24452718099 -308.24452718099 -308.24452718099 -312.605153401693 -312.605153401693 -312.605153401693 -306.561204698351 -306.561204698351 -306.561204698351 -306.633700900608 -306.633700900608 -306.633700900608 -309.205373128255 -309.205373128255 -309.205373128255 -314.25444539388 -314.25444539388 -314.25444539388 -323.44101969401 -323.44101969401 -323.44101969401 -328.028951009115 -328.028951009115 -328.028951009115 -339.404524061415 -339.404524061415 -339.404524061415 -340.597130669488 -340.597130669488 -340.597130669488 -348.960927327474 -348.960927327474 -348.960927327474 -359.008558485243 -359.008558485243 -359.008558485243 -365.676083034939 -365.676083034939 -365.676083034939 -374.038157145182 -374.038157145182 -374.038157145182 -380.39735921224 -380.39735921224 -380.39735921224 -385.984646267361 -385.984646267361 -385.984646267361 -393.911790635851 -393.911790635851 -393.911790635851 -402.599056667752 -402.599056667752 -402.599056667752 -410.797875298394 -410.797875298394 -410.797875298394 -421.128445095486 -421.128445095486 -421.128445095486 -429.72556898329 -429.72556898329 -429.72556898329 -437.176588270399 -437.176588270399 -437.176588270399 -449.911641438802 -449.911641438802 -449.911641438802 -464.961473253038 -464.961473253038 -464.961473253038 -475.044965955946 -475.044965955946 -475.044965955946 -483.541795518663 -483.541795518663 -483.541795518663 -486.913146972656 -486.913146972656 -486.913146972656 -489.808858235677 -489.808858235677 -489.808858235677 -497.67918226454 -497.67918226454 -497.67918226454 -503.595536973741 -503.595536973741 -503.595536973741 -505.354353162977 -505.354353162977 -505.354353162977 -505.862891303168 -505.862891303168 -505.862891303168 -507.287272135417 -507.287272135417 -507.287272135417 -508.921115451389 -508.921115451389 -508.921115451389 -514.001485188802 -514.001485188802 -514.001485188802 -515.075992160373 -515.075992160373 -515.075992160373 -525.738226996528
-77.116569519043 -77.116569519043 -79.6486892700195 -79.6486892700195 -79.6486892700195 -81.4769787258572 -81.4769787258572 -81.4769787258572 -82.5189293755425 -82.5189293755425 -82.5189293755425 -81.5004586113824 -81.5004586113824 -81.5004586113824 -80.7159695095486 -80.7159695095486 -80.7159695095486 -79.4385265774197 -79.4385265774197 -79.4385265774197 -79.4554189046224 -79.4554189046224 -79.4554189046224 -79.7555313110352 -79.7555313110352 -79.7555313110352 -80.3838153415256 -80.3838153415256 -80.3838153415256 -83.521849738227 -83.521849738227 -83.521849738227 -84.802241007487 -84.802241007487 -84.802241007487 -86.0077217949761 -86.0077217949761 -86.0077217949761 -85.5821363661024 -85.5821363661024 -85.5821363661024 -86.0421964857313 -86.0421964857313 -86.0421964857313 -86.0566940307617 -86.0566940307617 -86.0566940307617 -88.7134687635634 -88.7134687635634 -88.7134687635634 -89.7123853895399 -89.7123853895399 -89.7123853895399 -90.2854224310981 -90.2854224310981 -90.2854224310981 -89.610961066352 -89.610961066352 -89.610961066352 -92.0771670871311 -92.0771670871311 -92.0771670871311 -97.1962068345812 -97.1962068345812 -97.1962068345812 -110.016855027941 -110.016855027941 -110.016855027941 -110.97758992513 -110.97758992513 -110.97758992513 -110.167100694444 -110.167100694444 -110.167100694444 -112.392578972711 -112.392578972711 -112.392578972711 -113.060963948568 -113.060963948568 -113.060963948568 -119.17815568712 -119.17815568712 -119.17815568712 -136.497399224175 -136.497399224175 -136.497399224175 -140.111211140951 -140.111211140951 -140.111211140951 -140.285100301107 -140.285100301107 -140.285100301107 -140.23474460178 -140.23474460178 -140.23474460178 -140.315171983507 -140.315171983507 -140.315171983507 -142.850187513563 -142.850187513563 -142.850187513563 -150.115834554036 -150.115834554036 -150.115834554036 -163.658396402995 -163.658396402995 -163.658396402995 -183.932017008464 -183.932017008464 -183.932017008464 -210.482515123155 -210.482515123155 -210.482515123155 -241.65365770128 -241.65365770128 -241.65365770128 -269.242702907986 -269.242702907986 -269.242702907986 -288.214667426215 -288.214667426215 -288.214667426215 -301.540218777127 -301.540218777127 -301.540218777127 -308.24452718099 -308.24452718099 -308.24452718099 -312.605153401693 -312.605153401693 -312.605153401693 -306.561204698351 -306.561204698351 -306.561204698351 -306.633700900608 -306.633700900608 -306.633700900608 -309.205373128255 -309.205373128255 -309.205373128255 -314.25444539388 -314.25444539388 -314.25444539388 -323.44101969401 -323.44101969401 -323.44101969401 -328.028951009115 -328.028951009115 -328.028951009115 -339.404524061415 -339.404524061415 -339.404524061415 -340.597130669488 -340.597130669488 -340.597130669488 -348.960927327474 -348.960927327474 -348.960927327474 -359.008558485243 -359.008558485243 -359.008558485243 -365.676083034939 -365.676083034939 -365.676083034939 -374.038157145182 -374.038157145182 -374.038157145182 -380.39735921224 -380.39735921224 -380.39735921224 -385.984646267361 -385.984646267361 -385.984646267361 -393.911790635851 -393.911790635851 -393.911790635851 -402.599056667752 -402.599056667752 -402.599056667752 -410.797875298394 -410.797875298394 -410.797875298394 -421.128445095486 -421.128445095486 -421.128445095486 -429.72556898329 -429.72556898329 -429.72556898329 -437.176588270399 -437.176588270399 -437.176588270399 -449.911641438802 -449.911641438802 -449.911641438802 -464.961473253038 -464.961473253038 -464.961473253038 -475.044965955946 -475.044965955946 -475.044965955946 -483.541795518663 -483.541795518663 -483.541795518663 -486.913146972656 -486.913146972656 -486.913146972656 -489.808858235677 -489.808858235677 -489.808858235677 -497.67918226454 -497.67918226454 -497.67918226454 -503.595536973741 -503.595536973741 -503.595536973741 -505.354353162977 -505.354353162977 -505.354353162977 -505.862891303168 -505.862891303168 -505.862891303168 -507.287272135417 -507.287272135417 -507.287272135417 -508.921115451389 -508.921115451389 -508.921115451389 -514.001485188802 -514.001485188802 -514.001485188802 -515.075992160373 -515.075992160373 -515.075992160373 -525.738226996528
-79.3419859144423 -79.3419859144423 -80.3314997355143 -80.3314997355143 -80.3314997355143 -81.6088290744358 -81.6088290744358 -81.6088290744358 -81.1354387071398 -81.1354387071398 -81.1354387071398 -79.4545957777235 -79.4545957777235 -79.4545957777235 -79.9323340521918 -79.9323340521918 -79.9323340521918 -80.2072092692057 -80.2072092692057 -80.2072092692057 -80.0517654418945 -80.0517654418945 -80.0517654418945 -80.1210157606337 -80.1210157606337 -80.1210157606337 -80.0164566040039 -80.0164566040039 -80.0164566040039 -81.4710227118598 -81.4710227118598 -81.4710227118598 -84.2253239949544 -84.2253239949544 -84.2253239949544 -85.4745746188694 -85.4745746188694 -85.4745746188694 -83.5273717244466 -83.5273717244466 -83.5273717244466 -86.928212483724 -86.928212483724 -86.928212483724 -86.865596347385 -86.865596347385 -86.865596347385 -88.194938659668 -88.194938659668 -88.194938659668 -86.0065036349826 -86.0065036349826 -86.0065036349826 -89.2976964314779 -89.2976964314779 -89.2976964314779 -83.0558395385742 -83.0558395385742 -83.0558395385742 -85.7138943142361 -85.7138943142361 -85.7138943142361 -90.9029778374566 -90.9029778374566 -90.9029778374566 -101.008305867513 -101.008305867513 -101.008305867513 -108.341661241319 -108.341661241319 -108.341661241319 -109.028952704536 -109.028952704536 -109.028952704536 -109.672694736057 -109.672694736057 -109.672694736057 -108.586542765299 -108.586542765299 -108.586542765299 -109.805484347873 -109.805484347873 -109.805484347873 -118.553572760688 -118.553572760688 -118.553572760688 -135.405354817708 -135.405354817708 -135.405354817708 -140.363764444987 -140.363764444987 -140.363764444987 -140.507587009006 -140.507587009006 -140.507587009006 -140.199566311306 -140.199566311306 -140.199566311306 -146.795345730252 -146.795345730252 -146.795345730252 -150.114332411024 -150.114332411024 -150.114332411024 -150.83923678928 -150.83923678928 -150.83923678928 -156.784595065647 -156.784595065647 -156.784595065647 -164.641877916124 -164.641877916124 -164.641877916124 -172.910663180881 -172.910663180881 -172.910663180881 -175.137552897135 -175.137552897135 -175.137552897135 -188.421924167209 -188.421924167209 -188.421924167209 -212.709998236762 -212.709998236762 -212.709998236762 -257.316258748372 -257.316258748372 -257.316258748372 -285.074557834201 -285.074557834201 -285.074557834201 -305.118126763238 -305.118126763238 -305.118126763238 -310.033111572266 -310.033111572266 -310.033111572266 -310.035386827257 -310.035386827257 -310.035386827257 -308.907487657335 -308.907487657335 -308.907487657335 -312.014038085938 -312.014038085938 -312.014038085938 -315.243316650391 -315.243316650391 -315.243316650391 -326.29211086697 -326.29211086697 -326.29211086697 -329.170793321398 -329.170793321398 -329.170793321398 -337.567528618707 -337.567528618707 -337.567528618707 -342.734229193793 -342.734229193793 -342.734229193793 -347.793226453993 -347.793226453993 -347.793226453993 -353.904181586372 -353.904181586372 -353.904181586372 -359.136705186632 -359.136705186632 -359.136705186632 -364.171654595269 -364.171654595269 -364.171654595269 -371.7554558648 -371.7554558648 -371.7554558648 -379.186411539714 -379.186411539714 -379.186411539714 -387.989183213976 -387.989183213976 -387.989183213976 -396.434899224175 -396.434899224175 -396.434899224175 -407.004272460938 -407.004272460938 -407.004272460938 -417.975928412543 -417.975928412543 -417.975928412543 -433.539228651259 -433.539228651259 -433.539228651259 -447.527784559462 -447.527784559462 -447.527784559462 -458.44930352105 -458.44930352105 -458.44930352105 -465.798906114366 -465.798906114366 -465.798906114366 -469.789849175347 -469.789849175347 -469.789849175347 -472.757663302951 -472.757663302951 -472.757663302951 -477.130218505859 -477.130218505859 -477.130218505859 -484.176761203342 -484.176761203342 -484.176761203342 -488.220367431641 -488.220367431641 -488.220367431641 -490.350026448568 -490.350026448568 -490.350026448568 -491.941914876302 -491.941914876302 -491.941914876302 -488.237260606554 -488.237260606554 -488.237260606554 -482.018527560764 -482.018527560764 -482.018527560764 -475.419338650174 -475.419338650174 -475.419338650174 -468.793582492405
-79.3419859144423 -79.3419859144423 -80.3314997355143 -80.3314997355143 -80.3314997355143 -81.6088290744358 -81.6088290744358 -81.6088290744358 -81.1354387071398 -81.1354387071398 -81.1354387071398 -79.4545957777235 -79.4545957777235 -79.4545957777235 -79.9323340521918 -79.9323340521918 -79.9323340521918 -80.2072092692057 -80.2072092692057 -80.2072092692057 -80.0517654418945 -80.0517654418945 -80.0517654418945 -80.1210157606337 -80.1210157606337 -80.1210157606337 -80.0164566040039 -80.0164566040039 -80.0164566040039 -81.4710227118598 -81.4710227118598 -81.4710227118598 -84.2253239949544 -84.2253239949544 -84.2253239949544 -85.4745746188694 -85.4745746188694 -85.4745746188694 -83.5273717244466 -83.5273717244466 -83.5273717244466 -86.928212483724 -86.928212483724 -86.928212483724 -86.865596347385 -86.865596347385 -86.865596347385 -88.194938659668 -88.194938659668 -88.194938659668 -86.0065036349826 -86.0065036349826 -86.0065036349826 -89.2976964314779 -89.2976964314779 -89.2976964314779 -83.0558395385742 -83.0558395385742 -83.0558395385742 -85.7138943142361 -85.7138943142361 -85.7138943142361 -90.9029778374566 -90.9029778374566 -90.9029778374566 -101.008305867513 -101.008305867513 -101.008305867513 -108.341661241319 -108.341661241319 -108.341661241319 -109.028952704536 -109.028952704536 -109.028952704536 -109.672694736057 -109.672694736057 -109.672694736057 -108.586542765299 -108.586542765299 -108.586542765299 -109.805484347873 -109.805484347873 -109.805484347873 -118.553572760688 -118.553572760688 -118.553572760688 -135.405354817708 -135.405354817708 -135.405354817708 -140.363764444987 -140.363764444987 -140.363764444987 -140.507587009006 -140.507587009006 -140.507587009006 -140.199566311306 -140.199566311306 -140.199566311306 -146.795345730252 -146.795345730252 -146.795345730252 -150.114332411024 -150.114332411024 -150.114332411024 -150.83923678928 -150.83923678928 -150.83923678928 -156.784595065647 -156.784595065647 -156.784595065647 -164.641877916124 -164.641877916124 -164.641877916124 -172.910663180881 -172.910663180881 -172.910663180881 -175.137552897135 -175.137552897135 -175.137552897135 -188.421924167209 -188.421924167209 -188.421924167209 -212.709998236762 -212.709998236762 -212.709998236762 -257.316258748372 -257.316258748372 -257.316258748372 -285.074557834201 -285.074557834201 -285.074557834201 -305.118126763238 -305.118126763238 -305.118126763238 -310.033111572266 -310.033111572266 -310.033111572266 -310.035386827257 -310.035386827257 -310.035386827257 -308.907487657335 -308.907487657335 -308.907487657335 -312.014038085938 -312.014038085938 -312.014038085938 -315.243316650391 -315.243316650391 -315.243316650391 -326.29211086697 -326.29211086697 -326.29211086697 -329.170793321398 -329.170793321398 -329.170793321398 -337.567528618707 -337.567528618707 -337.567528618707 -342.734229193793 -342.734229193793 -342.734229193793 -347.793226453993 -347.793226453993 -347.793226453993 -353.904181586372 -353.904181586372 -353.904181586372 -359.136705186632 -359.136705186632 -359.136705186632 -364.171654595269 -364.171654595269 -364.171654595269 -371.7554558648 -371.7554558648 -371.7554558648 -379.186411539714 -379.186411539714 -379.186411539714 -387.989183213976 -387.989183213976 -387.989183213976 -396.434899224175 -396.434899224175 -396.434899224175 -407.004272460938 -407.004272460938 -407.004272460938 -417.975928412543 -417.975928412543 -417.975928412543 -433.539228651259 -433.539228651259 -433.539228651259 -447.527784559462 -447.527784559462 -447.527784559462 -458.44930352105 -458.44930352105 -458.44930352105 -465.798906114366 -465.798906114366 -465.798906114366 -469.789849175347 -469.789849175347 -469.789849175347 -472.757663302951 -472.757663302951 -472.757663302951 -477.130218505859 -477.130218505859 -477.130218505859 -484.176761203342 -484.176761203342 -484.176761203342 -488.220367431641 -488.220367431641 -488.220367431641 -490.350026448568 -490.350026448568 -490.350026448568 -491.941914876302 -491.941914876302 -491.941914876302 -488.237260606554 -488.237260606554 -488.237260606554 -482.018527560764 -482.018527560764 -482.018527560764 -475.419338650174 -475.419338650174 -475.419338650174 -468.793582492405
-79.3419859144423 -79.3419859144423 -80.3314997355143 -80.3314997355143 -80.3314997355143 -81.6088290744358 -81.6088290744358 -81.6088290744358 -81.1354387071398 -81.1354387071398 -81.1354387071398 -79.4545957777235 -79.4545957777235 -79.4545957777235 -79.9323340521918 -79.9323340521918 -79.9323340521918 -80.2072092692057 -80.2072092692057 -80.2072092692057 -80.0517654418945 -80.0517654418945 -80.0517654418945 -80.1210157606337 -80.1210157606337 -80.1210157606337 -80.0164566040039 -80.0164566040039 -80.0164566040039 -81.4710227118598 -81.4710227118598 -81.4710227118598 -84.2253239949544 -84.2253239949544 -84.2253239949544 -85.4745746188694 -85.4745746188694 -85.4745746188694 -83.5273717244466 -83.5273717244466 -83.5273717244466 -86.928212483724 -86.928212483724 -86.928212483724 -86.865596347385 -86.865596347385 -86.865596347385 -88.194938659668 -88.194938659668 -88.194938659668 -86.0065036349826 -86.0065036349826 -86.0065036349826 -89.2976964314779 -89.2976964314779 -89.2976964314779 -83.0558395385742 -83.0558395385742 -83.0558395385742 -85.7138943142361 -85.7138943142361 -85.7138943142361 -90.9029778374566 -90.9029778374566 -90.9029778374566 -101.008305867513 -101.008305867513 -101.008305867513 -108.341661241319 -108.341661241319 -108.341661241319 -109.028952704536 -109.028952704536 -109.028952704536 -109.672694736057 -109.672694736057 -109.672694736057 -108.586542765299 -108.586542765299 -108.586542765299 -109.805484347873 -109.805484347873 -109.805484347873 -118.553572760688 -118.553572760688 -118.553572760688 -135.405354817708 -135.405354817708 -135.405354817708 -140.363764444987 -140.363764444987 -140.363764444987 -140.507587009006 -140.507587009006 -140.507587009006 -140.199566311306 -140.199566311306 -140.199566311306 -146.795345730252 -146.795345730252 -146.795345730252 -150.114332411024 -150.114332411024 -150.114332411024 -150.83923678928 -150.83923678928 -150.83923678928 -156.784595065647 -156.784595065647 -156.784595065647 -164.641877916124 -164.641877916124 -164.641877916124 -172.910663180881 -172.910663180881 -172.910663180881 -175.137552897135 -175.137552897135 -175.137552897135 -188.421924167209 -188.421924167209 -188.421924167209 -212.709998236762 -212.709998236762 -212.709998236762 -257.316258748372 -257.316258748372 -257.316258748372 -285.074557834201 -285.074557834201 -285.074557834201 -305.118126763238 -305.118126763238 -305.118126763238 -310.033111572266 -310.033111572266 -310.033111572266 -310.035386827257 -310.035386827257 -310.035386827257 -308.907487657335 -308.907487657335 -308.907487657335 -312.014038085938 -312.014038085938 -312.014038085938 -315.243316650391 -315.243316650391 -315.243316650391 -326.29211086697 -326.29211086697 -326.29211086697 -329.170793321398 -329.170793321398 -329.170793321398 -337.567528618707 -337.567528618707 -337.567528618707 -342.734229193793 -342.734229193793 -342.734229193793 -347.793226453993 -347.793226453993 -347.793226453993 -353.904181586372 -353.904181586372 -353.904181586372 -359.136705186632 -359.136705186632 -359.136705186632 -364.171654595269 -364.171654595269 -364.171654595269 -371.7554558648 -371.7554558648 -371.7554558648 -379.186411539714 -379.186411539714 -379.186411539714 -387.989183213976 -387.989183213976 -387.989183213976 -396.434899224175 -396.434899224175 -396.434899224175 -407.004272460938 -407.004272460938 -407.004272460938 -417.975928412543 -417.975928412543 -417.975928412543 -433.539228651259 -433.539228651259 -433.539228651259 -447.527784559462 -447.527784559462 -447.527784559462 -458.44930352105 -458.44930352105 -458.44930352105 -465.798906114366 -465.798906114366 -465.798906114366 -469.789849175347 -469.789849175347 -469.789849175347 -472.757663302951 -472.757663302951 -472.757663302951 -477.130218505859 -477.130218505859 -477.130218505859 -484.176761203342 -484.176761203342 -484.176761203342 -488.220367431641 -488.220367431641 -488.220367431641 -490.350026448568 -490.350026448568 -490.350026448568 -491.941914876302 -491.941914876302 -491.941914876302 -488.237260606554 -488.237260606554 -488.237260606554 -482.018527560764 -482.018527560764 -482.018527560764 -475.419338650174 -475.419338650174 -475.419338650174 -468.793582492405
-79.6912248399523 -79.6912248399523 -79.6528515285916 -79.6528515285916 -79.6528515285916 -80.4841800265842 -80.4841800265842 -80.4841800265842 -80.2380583021376 -80.2380583021376 -80.2380583021376 -79.2800233629015 -79.2800233629015 -79.2800233629015 -79.8545811971029 -79.8545811971029 -79.8545811971029 -80.4184248182509 -80.4184248182509 -80.4184248182509 -79.49888865153 -79.49888865153 -79.49888865153 -80.603025648329 -80.603025648329 -80.603025648329 -83.2035242716471 -83.2035242716471 -83.2035242716471 -82.7230758666992 -82.7230758666992 -82.7230758666992 -83.0670479668511 -83.0670479668511 -83.0670479668511 -83.7940995958116 -83.7940995958116 -83.7940995958116 -82.163697136773 -82.163697136773 -82.163697136773 -85.826909383138 -85.826909383138 -85.826909383138 -87.8353635999892 -87.8353635999892 -87.8353635999892 -87.6773995293511 -87.6773995293511 -87.6773995293511 -84.8752212524414 -84.8752212524414 -84.8752212524414 -86.242790222168 -86.242790222168 -86.242790222168 -85.6403045654297 -85.6403045654297 -85.6403045654297 -87.4893188476562 -87.4893188476562 -87.4893188476562 -87.193726433648 -87.193726433648 -87.193726433648 -91.6265377468533 -91.6265377468533 -91.6265377468533 -94.4517907036675 -94.4517907036675 -94.4517907036675 -102.705003526476 -102.705003526476 -102.705003526476 -106.883315192329 -106.883315192329 -106.883315192329 -108.524998982747 -108.524998982747 -108.524998982747 -112.253607855903 -112.253607855903 -112.253607855903 -120.261789957682 -120.261789957682 -120.261789957682 -129.126079135471 -129.126079135471 -129.126079135471 -138.793626573351 -138.793626573351 -138.793626573351 -140.727037217882 -140.727037217882 -140.727037217882 -140.764943440755 -140.764943440755 -140.764943440755 -142.841659545898 -142.841659545898 -142.841659545898 -148.606492784288 -148.606492784288 -148.606492784288 -149.940845065647 -149.940845065647 -149.940845065647 -152.984580145942 -152.984580145942 -152.984580145942 -155.575169881185 -155.575169881185 -155.575169881185 -158.780900743273 -158.780900743273 -158.780900743273 -155.229197184245 -155.229197184245 -155.229197184245 -155.825720893012 -155.825720893012 -155.825720893012 -159.389056735569 -159.389056735569 -159.389056735569 -178.277499728733 -178.277499728733 -178.277499728733 -208.54685804579 -208.54685804579 -208.54685804579 -259.451412624783 -259.451412624783 -259.451412624783 -295.714589436849 -295.714589436849 -295.714589436849 -310.29889594184 -310.29889594184 -310.29889594184 -310.020094129774 -310.020094129774 -310.020094129774 -304.512702094184 -304.512702094184 -304.512702094184 -306.257524278429 -306.257524278429 -306.257524278429 -310.553941514757 -310.553941514757 -310.553941514757 -314.830773247613 -314.830773247613 -314.830773247613 -321.762427435981 -321.762427435981 -321.762427435981 -325.977932400174 -325.977932400174 -325.977932400174 -330.564361572266 -330.564361572266 -330.564361572266 -335.352610270182 -335.352610270182 -335.352610270182 -338.574442545573 -338.574442545573 -338.574442545573 -343.215311686198 -343.215311686198 -343.215311686198 -348.313808865017 -348.313808865017 -348.313808865017 -353.998168945312 -353.998168945312 -353.998168945312 -361.136511908637 -361.136511908637 -361.136511908637 -377.65564303928 -377.65564303928 -377.65564303928 -389.450602213542 -389.450602213542 -389.450602213542 -401.085083007812 -401.085083007812 -401.085083007812 -413.600531684028 -413.600531684028 -413.600531684028 -427.335666232639 -427.335666232639 -427.335666232639 -438.629889594184 -438.629889594184 -438.629889594184 -446.341152615017 -446.341152615017 -446.341152615017 -448.874532063802 -448.874532063802 -448.874532063802 -451.990393744575 -451.990393744575 -451.990393744575 -454.743058946398 -454.743058946398 -454.743058946398 -460.59368218316 -460.59368218316 -460.59368218316 -466.551961263021 -466.551961263021 -466.551961263021 -470.184170193142 -470.184170193142 -470.184170193142 -467.643547905816 -467.643547905816 -467.643547905816 -455.424784342448 -455.424784342448 -455.424784342448 -441.52483452691 -441.52483452691 -441.52483452691 -422.139166937934 -422.139166937934 -422.139166937934 -422.174689398872
-79.6912248399523 -79.6912248399523 -79.6528515285916 -79.6528515285916 -79.6528515285916 -80.4841800265842 -80.4841800265842 -80.4841800265842 -80.2380583021376 -80.2380583021376 -80.2380583021376 -79.2800233629015 -79.2800233629015 -79.2800233629015 -79.8545811971029 -79.8545811971029 -79.8545811971029 -80.4184248182509 -80.4184248182509 -80.4184248182509 -79.49888865153 -79.49888865153 -79.49888865153 -80.603025648329 -80.603025648329 -80.603025648329 -83.2035242716471 -83.2035242716471 -83.2035242716471 -82.7230758666992 -82.7230758666992 -82.7230758666992 -83.0670479668511 -83.0670479668511 -83.0670479668511 -83.7940995958116 -83.7940995958116 -83.7940995958116 -82.163697136773 -82.163697136773 -82.163697136773 -85.826909383138 -85.826909383138 -85.826909383138 -87.8353635999892 -87.8353635999892 -87.8353635999892 -87.6773995293511 -87.6773995293511 -87.6773995293511 -84.8752212524414 -84.8752212524414 -84.8752212524414 -86.242790222168 -86.242790222168 -86.242790222168 -85.6403045654297 -85.6403045654297 -85.6403045654297 -87.4893188476562 -87.4893188476562 -87.4893188476562 -87.193726433648 -87.193726433648 -87.193726433648 -91.6265377468533 -91.6265377468533 -91.6265377468533 -94.4517907036675 -94.4517907036675 -94.4517907036675 -102.705003526476 -102.705003526476 -102.705003526476 -106.883315192329 -106.883315192329 -106.883315192329 -108.524998982747 -108.524998982747 -108.524998982747 -112.253607855903 -112.253607855903 -112.253607855903 -120.261789957682 -120.261789957682 -120.261789957682 -129.126079135471 -129.126079135471 -129.126079135471 -138.793626573351 -138.793626573351 -138.793626573351 -140.727037217882 -140.727037217882 -140.727037217882 -140.764943440755 -140.764943440755 -140.764943440755 -142.841659545898 -142.841659545898 -142.841659545898 -148.606492784288 -148.606492784288 -148.606492784288 -149.940845065647 -149.940845065647 -149.940845065647 -152.984580145942 -152.984580145942 -152.984580145942 -155.575169881185 -155.575169881185 -155.575169881185 -158.780900743273 -158.780900743273 -158.780900743273 -155.229197184245 -155.229197184245 -155.229197184245 -155.825720893012 -155.825720893012 -155.825720893012 -159.389056735569 -159.389056735569 -159.389056735569 -178.277499728733 -178.277499728733 -178.277499728733 -208.54685804579 -208.54685804579 -208.54685804579 -259.451412624783 -259.451412624783 -259.451412624783 -295.714589436849 -295.714589436849 -295.714589436849 -310.29889594184 -310.29889594184 -310.29889594184 -310.020094129774 -310.020094129774 -310.020094129774 -304.512702094184 -304.512702094184 -304.512702094184 -306.257524278429 -306.257524278429 -306.257524278429 -310.553941514757 -310.553941514757 -310.553941514757 -314.830773247613 -314.830773247613 -314.830773247613 -321.762427435981 -321.762427435981 -321.762427435981 -325.977932400174 -325.977932400174 -325.977932400174 -330.564361572266 -330.564361572266 -330.564361572266 -335.352610270182 -335.352610270182 -335.352610270182 -338.574442545573 -338.574442545573 -338.574442545573 -343.215311686198 -343.215311686198 -343.215311686198 -348.313808865017 -348.313808865017 -348.313808865017 -353.998168945312 -353.998168945312 -353.998168945312 -361.136511908637 -361.136511908637 -361.136511908637 -377.65564303928 -377.65564303928 -377.65564303928 -389.450602213542 -389.450602213542 -389.450602213542 -401.085083007812 -401.085083007812 -401.085083007812 -413.600531684028 -413.600531684028 -413.600531684028 -427.335666232639 -427.335666232639 -427.335666232639 -438.629889594184 -438.629889594184 -438.629889594184 -446.341152615017 -446.341152615017 -446.341152615017 -448.874532063802 -448.874532063802 -448.874532063802 -451.990393744575 -451.990393744575 -451.990393744575 -454.743058946398 -454.743058946398 -454.743058946398 -460.59368218316 -460.59368218316 -460.59368218316 -466.551961263021 -466.551961263021 -466.551961263021 -470.184170193142 -470.184170193142 -470.184170193142 -467.643547905816 -467.643547905816 -467.643547905816 -455.424784342448 -455.424784342448 -455.424784342448 -441.52483452691 -441.52483452691 -441.52483452691 -422.139166937934 -422.139166937934 -422.139166937934 -422.174689398872
